-4.9566020876522625 0.6573399004177651 -1.086347028290346
3.150927657196245 3.882222932691499 -4.509900662836468
-4.039631144034576 2.9464182018420098 -2.6872176349830035
3.410930670425778 3.6558927721623284 -2.0660120555762145
-2.318661711295719 4.42987673288673 3.7760165140771953
-4.828738724445957 1.2974137085124502 5.255904521421325
-2.996687891994709 4.0024819397434275 -3.2145770751963854
4.997539774146658 -0.15683177555003422 -4.9145067198576715
-4.914044926953144 0.9231264571477011 0.7958401285616805
0.5349712122112172 4.971298200883273 -9.461934613207346
2.3802835444598895 4.397072918200637 9.451643199541632
1.1593350609498412 -4.863737474047342 -5.863240384191625
-4.599251998668248 1.9613467446492272 -7.023831827858295
-4.99323912354774 -0.2599289423519432 9.1341629662262
-2.5229048631889857 -4.3168218693035465 1.0172307635374729
-2.5596699127989417 4.295123972309979 -0.5073262712727367
-4.822778450650702 1.3193968379298224 -0.26204347469165334
-3.6792608317079543 3.3857111117547656 -4.0698698300778595
4.585493255062004 1.9933016850895573 -0.43007911648444086
3.863333331337446 -3.17405979322651 -9.305107017540612
-4.608193240635777 1.9402461330869167 -6.1664904321729175
-4.872640716667402 -1.1213261997630235 1.2466331683624503
3.3115964115115086 -3.746108541842334 -7.101474836275901
4.98965432745189 -0.3214804699209999 -3.8515719102129857
1.2047839759514327 -4.85267921578283 -3.7256882284855797
4.829533394506629 -1.2944524677813702 -1.5339676011987464
-0.2088268463205646 4.995637231450639 -5.903008149445306
-2.7931600557868332 4.14707811630754 -5.457576295301141
-1.6622685162600594 4.715597881483385 -4.657396646455081
4.631909599097475 1.8829268349536763 1.147975493339466
-1.3058569467462315 -4.826462227619171 -2.3357791454485604
-3.697995158790175 -3.365238744214804 8.207993774480485
-3.8530997345657276 3.186474923091271 -6.958036884475516
4.935608293232065 0.7998567220314295 9.603855585370077
-4.541206984975214 2.0922330462002385 8.00419629125443
4.718161186343256 -1.6549788577755322 1.5028950015686497
-4.960004266745131 -0.6311558237631131 1.8540403146165847
3.9792107470993225 -3.0275207398413064 1.9279991204961728
-3.3951619101821158 -3.6705415954118448 3.2058276449477834
3.848458535504429 3.192078774169445 9.525465323065731
-4.951958604840677 -0.6914520778364731 -6.896768861217478
1.5961722378144072 -4.738378856447693 1.0777049184171545
-4.857808748616607 -1.1839316542199365 8.314841946608684
4.699082200062248 -1.7083988050388403 9.386558339590763
4.958776842725913 0.6407278861148644 7.128038201536043
-3.4134186108693356 -3.6535699510165203 3.346726908010865
4.982975996250836 0.41225019198053525 -6.426666771247998
0.764626003630612 4.941188832110333 -8.42154620282592
2.1005229909156493 4.537378446265506 -6.339783477122467
-2.5820454495742817 4.281710090178076 1.7955245585209951
4.900434204515635 0.9928467188912972 1.6631698418540637
-3.91918858431378 3.1048286330463633 -4.671082898879543
4.067336069725761 -2.9080538674357115 1.5016927190862361
-4.835966816409381 1.2702066566458061 -7.019566608594436
1.0610848208358754 -4.886112872518573 -9.330144830625105
1.7987824120726965 4.665231166192939 7.135180463113407
-4.998392775679325 0.12676616282246306 8.135753150268833
4.736571096355649 -1.6015287225548736 2.4456467604132666
4.692711931429539 -1.725820016287577 6.662706459204628
-4.993676020811715 -0.2513957023699486 2.246734177471197
3.9500470300724224 -3.0654736110780725 2.6632443048948407
-3.317445584666344 -3.7409296695845247 9.935158421104447
3.996772275546868 -3.0042988162664357 2.3704042512195223
-4.734070818979566 -1.6089044349762176 -1.4213479379460772
0.7992771893712141 4.935702176443677 8.306522698233714
3.957052427279084 -3.0564253774245347 9.512691649029936
4.881974788128486 -1.079963966101569 -0.25546114224440863
-1.2872501136866874 -4.831458076483083 9.600546275332619
4.777535176093502 1.474841564775427 0.5970177177633378
4.620967981834766 -1.9096216669429402 -4.243009194675993
-4.958158790419284 -0.6454931517746565 2.8669545564345853
4.264515149549712 2.610346823558318 -3.9480764694659243
-4.003056439065265 2.995920417110261 -7.255812748960575
-4.653454944049918 1.829031733922999 -1.0890918900323108
2.5621927955932784 4.293619461271562 -6.902187603852401
4.999065170910873 0.09668204065826799 -1.5949134959075728
4.979866701776853 -0.4482495203947493 -7.052721280480276
4.929026326438675 0.8394638010506854 5.342078323904001
-4.422000261878115 -2.333648149132572 8.042851457803437
4.976124812147685 -0.4880387832213435 -5.5742525066912645
4.8449700788573 -1.2354209545646722 -3.572771738058746
4.738883590383217 -1.5946731065634323 -6.854093478850311
3.6766415223137 -3.388555314053291 7.844326067111549
-4.997425024544522 0.16044663927982014 -3.3482770035893754
-2.7606712621907232 -4.16877610122135 -0.7725501888222261
-1.8331818920823437 -4.651821594874571 -7.746285892737195
1.328755348735202 4.8202084211377825 -5.4928424728677
4.929108434204354 -0.8389815515585003 -8.93555290744448
2.2954630707173544 -4.441942062991463 -7.2586997965066535
2.488622923214095 4.336675679141032 -4.11725857177581
-2.1657781502687286 4.506595722251838 5.522575673200716
4.069271807315744 2.90534455068332 -5.387488642555538
-3.9641725843525126 3.047184884687491 -0.8290177219826056
4.7724958694511175 1.4910677972755024 2.788174364212292
-3.603986045885417 3.4657300213754674 -9.587145085273752
-1.9872706955206652 4.588110197317063 -1.7838123996953215
2.081536359948154 4.5461199260703395 8.764148608489101
-4.966837900331483 0.5749097945162778 -0.5117904823147139
2.864166653947249 -4.098359352035473 6.3256283038461945
4.859724237274888 -1.176044360406109 6.817094158499874
4.987087317043503 0.3591101393497936 4.838039043582981
-4.904094452250536 -0.974606383831707 1.2016081275308022
3.919715903290322 3.1041628883634527 1.6007599519931066
-4.232658595786185 -2.661691419289119 -5.3202256190196255
1.3503922355946427 -4.814191605040841 -3.099510175860476
-1.0343828503170047 -4.891835250595636 -2.1806750369468864
-4.9969076313650325 -0.17582412691636284 -5.02964482282922
-4.856883414747228 1.187721977380776 1.5203656022582877
4.349063325168608 -2.466910657821513 1.5513319972257165
4.685707769081728 -1.7447471744545509 5.14681045741508
4.902399286451385 -0.9830977755040173 -4.548474016407134
-0.43284187804809937 4.981229557911158 -7.955272035402315
2.747756987935561 -4.177299550577059 -6.456689086942802
4.860730302309932 1.1718792293602611 -5.329977411755358
3.7288892739122232 3.330973548814576 0.092253471019216
3.381313359180766 -3.68330286115949 -4.986631525588274
4.73917508244843 1.5938066187276028 8.705411329260635
-2.352386089239826 -4.412060707555026 -2.0880222589268405
-2.7419675194244704 -4.18110202248417 1.530985094633408
3.6775685606452986 -3.387549185141563 3.5849186108866427
-2.0335291801003814 -4.567795866025568 -6.557552288322648
-4.660431725571929 1.8111808665295273 9.679775002433917
-1.1192919679031286 4.873108401276083 2.747820472829794
0.7822474632532108 -4.938429801691416 1.4454566015165256
3.2710371273822796 -3.7815758767062553 -3.8974326868918396
-3.6590637743778087 3.4075287665749827 -4.85744793190891
-1.9029575356361905 -4.623716321052303 -8.723532429698139
-4.732168277182422 1.6144916836045786 5.946214976678858
-1.8010278596176443 4.664364763703745 -9.898254744504246
4.365174397812279 2.438288841930793 -8.005838753853023
-3.0663277381309855 -3.949384028221175 -2.3572095800470017
4.590675812925136 1.9813368165519316 -8.954136406793667
4.998903073082242 0.10472853445415882 -9.939096798733868
4.999751965349048 0.0498024596615452 6.046349246606383
0.31624260670305837 -4.989989039437427 -3.924759575866121
-4.882709272111303 -1.0766383627004512 3.9319088567192253
-0.11702774349723048 -4.998630263107279 -2.8580115013132286
3.565089672452326 3.505728972321416 9.913393847961508
2.9422345509111487 4.042679290696292 5.230272488000837
4.036891113098858 -2.9501712053681666 6.298370827099983
2.148235438781892 -4.514984440677684 0.8615902680755738
4.559881800576239 -2.0512137784184254 -3.646695869721423
4.896051433712495 1.0142388074027826 8.441656815763242
4.803619345718631 1.3875306055859484 -4.087722729924219
-4.784642753264265 -1.451617623079767 -4.277947910110409
-2.343675371941968 -4.416693984300099 -7.6705677429263
3.1922262280230624 3.848336226101048 -8.904202360943106
-4.642168652677289 1.857490296098562 -2.2765524287710566
4.347666871391466 -2.4693709270591846 -1.7948522983050008
4.466981176022292 -2.246347963487068 6.20936028191338
-0.48369258114889 4.976549154478586 9.611113742716611
-4.931637189204449 -0.8239870351259466 5.878110337798844
-4.981126216291093 -0.4340295121043962 -9.220373152427017
4.65648139191463 1.8213130007642275 6.1897646507603525
-3.1110195198082558 3.914276120481539 -1.1333590825221602
-1.7303835333889372 4.691031104925272 -7.005854415584656
-0.7004315326576492 4.950696483128294 -7.204699659785332
4.988148613628186 0.3440543683187344 -0.06523035639361474
1.5259708681898623 -4.761450714796477 5.961245541797899
-2.207543520392342 4.48628483330849 9.023037074161017
-1.570330960463534 4.74700544286708 1.736629749359464
-1.742686184372972 4.686474673226729 5.473877484921882
-2.6408142594706097 -4.245715492938345 5.620129141783163
2.7261109304828235 4.191457884161796 -1.2312193149286905
-4.611232340610746 1.9330122350635914 -0.8937429237012378
1.3620708138960491 4.810900445647629 -4.559909874629231
-3.3987288827233475 -3.6672390134462334 -9.65927438254842
0.16584666601543535 -4.997248731389259 3.083760710057584
4.785656960817005 1.44827050421658 -0.9863465626716739
-2.110996291163284 -4.532515268445861 4.5213969079479295
4.789184488315277 1.4365625419313766 -4.093897675260787
-2.5097370633526106 -4.324490706757758 -9.452232362600824
0.7713986737044053 -4.940136039240932 -3.7407899989594284
4.971481118953582 -0.5332686788927714 -6.581179939933315
-0.6251265049001433 4.960767768488194 1.9050052388737964
-1.553618341149039 -4.752501451871983 0.48735278042232366
0.6344910320052249 4.95957872508391 -7.335749263680233
-4.256996880752712 2.62258985685175 1.8914698317705998
0.166823093099954 -4.997216230623662 -3.0870851686305434
2.3386323602977206 -4.4193663214728325 -2.021349093313436
-1.7197581845410777 -4.694936824570058 -4.858838505209048
-3.8538230376103533 -3.185600099633303 -4.78375936225786
-4.319905135062635 2.517621819110145 -9.801386408220583
-3.6118907437493992 3.457491179340507 -3.7759074097730654
-4.635280969195232 -1.8746120496296044 -9.38337875204156
4.7995278980312674 1.401617621186164 -4.842101658062903
-4.544387012538068 -2.0853169256195416 5.537468429999413
2.4996127588277997 4.330350569631202 9.216450695288184
1.8395067235445257 4.649324145941481 -6.065004726134207
-0.7429505131575171 -4.944494365958867 5.451915351755105
-4.671856464531731 -1.7815041888283825 9.989616134281025
4.96751365259163 0.5690413968383654 -5.088717827232026
4.2120027547875445 -2.6942592291132894 -5.291766573568834
0.756655264012827 4.942415685820213 -0.9413104802068535
1.3389888269052324 -4.817375729733248 1.346061941427724
1.6849292322554719 -4.70754856398646 -9.181498236909043
1.6462677434771398 4.721207739211089 -8.697786273536368
-0.12204034730900482 -4.9985103934701085 -6.488179764105739
-4.565057899121351 2.0396682028383335 8.900386373602444
-4.991697329835478 -0.2880239005939557 -3.847957598381657
4.290105931387976 -2.5680714743693764 1.3220376120634718
3.1638766214613314 -3.8716772494837985 -3.5586487663790827
-2.4461112963267255 4.360795744584099 6.590502842685627
-4.639454347084478 -1.864259467273517 2.771519145727657
-4.8398428620315235 -1.2553569495735097 -4.411894519894217
3.2021836085056905 3.840054705003234 5.1221220597928525
-4.999376361173457 0.07896834391097825 -0.2035507215167094
-4.97068164355066 0.5406699533620388 -9.916138940398348
-4.374404896200387 2.421689865382865 9.234751513502005
3.035386280953993 3.973214079985659 -9.564570887599524
1.6014117442314277 -4.736610647439544 -8.055694856277807
3.962864856716136 -3.04888539099196 0.881491172156947
-4.232543041901373 -2.661875165828081 -4.117828415509612
1.2766800975830772 -4.834261880415175 2.86935030864079
-3.2200160788992855 3.8251139135495134 -8.978341207712514
-4.184609187133915 -2.7366121301628477 1.5474020402366069
-4.51514242573675 -2.1479033673124253 1.8695474434466846
-4.676741775161358 -1.768639694358519 7.182627561381079
-4.536871574571873 -2.1016175474718826 -4.6519901616406685
2.2848429377521344 -4.447414164411068 -5.986105944765409
2.2620576869886317 4.459046425048257 -0.22103157923903893
1.720123193682542 -4.694803105408721 -4.923529018304514
-1.1852708563603411 4.857482166417374 -6.832328452420018
-3.5976511569823866 -3.4723055960936526 -5.347999966770001
-3.605306374544188 3.4643564980629584 -2.925593307328045
0.038867806511546935 4.9998489270793955 2.3746527962280677
1.2167387739715112 4.849695532290074 2.0106159496476153
1.1264514794395237 -4.871458412474493 6.245405697798056
-2.4039310102851155 -4.3841892862637195 8.860555124782547
0.4052748824259986 4.983548160665711 3.171199135921759
4.986702692839989 -0.3644122023511248 -2.2190190431217394
0.3297346646040953 -4.989115658206214 -5.020347934925362
0.1941726948173496 4.996228273866935 0.44703946279010864
-4.8084650201565236 -1.3706436991177262 4.848343348964621
-4.618599788506521 -1.915342265394757 5.333245685120467
4.37129887925309 2.427291928928343 1.4611172315097836
1.7190867540925643 4.695182715497182 -7.9966913896543135
1.7521467362063206 4.6829458479467325 -9.857292599609496
1.2796603216837195 4.833473850255975 1.9152748744660748
4.222361743321134 2.6779957633532803 8.768587286309696
-4.921901206018334 0.8802775233954762 -0.6737395369101655
0.7310141119858529 4.946273179685645 6.836696192444688
3.904204412738721 -3.123649772870112 -6.115192461155865
3.1737061637962958 -3.8636238411472457 7.699216306591129
-4.414137365168813 -2.348487028156752 -6.416343574995844
3.0945664731850457 -3.927296569274985 -2.4082991189394694
1.3632019518498606 -4.8105800521842195 -8.60255249982675
-3.924091929618174 3.098629136877389 -9.053174893349972
-0.008859786915632963 4.999992150411419 1.5194245763215477
4.017627906880311 2.976351122071543 9.62142066145445
4.6824213929722305 1.75354780335068 7.510354625681131
-4.760717485089763 -1.5282568590261922 -2.6599651390356644
-1.9467235435171324 -4.605460611612708 -1.8756280614259975
4.877105301145162 -1.1017458334578598 -8.444301850924557
4.262310665659062 2.6139448711495423 0.25782653898126284
3.1267291449376633 -3.9017386962990477 -3.9618696310210115
-0.8867983825847146 4.920730497461239 8.14707327820048
-3.6459050396224835 -3.4216043666758695 1.0150879715653396
-3.385327848053011 3.679613479863988 -8.250342971091268
-4.42295949905083 2.331829597066654 6.78252020450968
-4.778922320193144 1.4703405923661985 -7.256737019682912
4.988428622475008 -0.33997040823002855 8.271529980842786
4.998865291055165 0.10651667420625345 -3.1192448031281224
-0.7387112115677047 -4.945129497384691 -6.63748968999516
4.999507174038815 -0.07019983429054442 -4.469947092321423
-4.982784742280798 -0.4145554391075814 4.813052289044284
2.671553889358689 -4.2264405610693805 -9.52406275088602
2.678302275195674 4.222167325282322 -7.32389471879757
-3.9138815150080286 3.1115159466855475 3.377621940959269
-1.1241890835964774 4.871981004101157 -5.3963426270939525
0.752249455734773 -4.943088180110359 -2.163289022444223
4.677467969266705 1.766718256113295 -8.287396372452694
4.889429016879082 1.045697799988533 4.085440903368147
4.7467293658622065 -1.5711652768761715 -2.0194303519947017
-3.957403354686399 3.055970989442936 -6.595406349689858
-2.75961721190429 -4.169473928898176 -6.249991958786141
-1.643152400033698 -4.722292895433689 6.440105809658185
-0.9508047690795919 4.908764640018454 -4.605320605446341
-1.2309650884720336 -4.846104100301916 -0.18995354259648067
3.9334346663294046 -3.0867607172759737 -5.413572435174916
1.835137039753991 4.651050638868917 7.748702790911775
-3.107407773062014 -3.9171439764085485 -6.521206950945628
3.907118060032005 -3.120004561690855 9.753534998289606
-3.1010595239767795 3.922171570540089 8.20339703285648
-4.3613814534292965 -2.4450668329685707 3.6388716277750035
-0.18938589247768844 4.996412011006541 3.0910749090807315
0.15354984806156222 -4.997641688252598 -2.6135559047080044
2.803776092649581 -4.139908165924294 6.417898610087416
-4.221905400016891 2.6787151385147725 2.3112454894796066
4.4014685175270865 2.3721456298503076 9.477338278310182
4.027805077831411 2.9625641351699885 -5.468549037448637
2.7184271862698797 -4.1964453568405755 -7.552613824765295
-4.183074270436521 -2.7389577667448557 5.534750054058694
4.893734408833347 1.0253601980770108 7.847028575962916
3.0127702518820816 -3.9903903830796277 2.773517426824913
1.3623583186069985 -4.810819037515578 -2.9218788650329364
-4.228128089807786 -2.668882323404005 -6.846930138339474
4.541136199133795 2.092386680543698 -1.3564879340804232
4.174011414226698 -2.7527493009544552 -8.526922133655113
-3.382484280976196 3.6822275987435846 -7.094887131155612
2.9484472900366487 -4.038150390695664 0.4673550050217461
4.893104457143964 -1.0283621791362607 -7.233053753645731
-2.652334786074366 -4.238528067924035 6.354154425865172
1.906751793852539 -4.622152917920406 -3.4808926143059686
4.997807067069082 0.14806930929246145 -8.952804946704937
-4.675277496706018 -1.772506792312602 0.5469343911398443
-4.94758525127445 -0.7220804535310009 7.323494750366109
2.9233775635074655 4.056336231278314 -5.192984693949009
-3.06595910355677 3.949670210956526 6.460792997878318
-0.18266494525657834 4.996662237711732 8.37973348421151
-1.6421511005873253 -4.722641185061579 -6.567540675356329
2.094399461924865 4.540208243449725 8.365721226761707
4.050090114600198 2.932024908423828 -8.82308234078456
-2.198397553580304 4.4907736745924005 -7.386157304109062
-1.8125866977617855 -4.659885134109748 8.360952901350103
-1.0368850852827916 4.891305482171207 1.4214133085208616
4.857730438064004 -1.1842529253105099 2.7662540550752386
-2.7914199209028774 -4.148249609797676 6.155031997229695
3.5832575684929227 -3.487157179973135 7.968745379596879
-4.294552448323569 -2.560628686201503 -3.6993358920300263
-0.13163805603128034 4.998266841836709 -6.10398017947428
-4.779455637574769 -1.468606076677731 -5.120410770668952
1.490102605031616 -4.772797316718781 5.399082834595193
3.9993550747763855 3.000859707793813 7.059609027900013
4.654364347449078 1.8267163220365992 -4.439009085006454
-4.432400078485202 2.313834381334234 8.512670828703875
0.7773294195197161 -4.9392063100815236 -3.433605418724241
4.6278024338609445 1.8929988465793433 -4.309856031308659
4.659642703505095 -1.813209826708352 -7.6584390012177606
3.1848099610987486 3.8544760359465444 2.474212454157673
0.5311897754357331 4.971703674040976 -8.491086107048112
-0.8469819017311049 -4.927740015274747 3.506426590419256
3.0571384172542277 3.9565015730754256 6.284252368780379
3.877789757114895 -3.1563818843122906 0.19609805211685583
1.8536536037829685 -4.643702005639726 -9.333323100517871
3.7132304180155917 3.3484205026734255 -4.084216971952584
3.4372902983718423 3.6311204062546327 -0.5097390776671258
2.6824348516952594 4.219543016300537 -7.224050641164343
-4.0044392078831645 -2.9940719146954455 -2.368342683790776
3.372280962220901 -3.691574340554782 9.000488756631452
4.957561860350801 -0.6500618438234156 2.5388642452026478
4.273382033137346 -2.595805462444927 -7.679574652991763
-4.93976979076094 0.7737405342138998 -5.100209640110109
-2.0341475355352037 4.567520531281283 4.4662779548285325
-1.1589302524079121 4.863833947623391 -8.456525606368022
-0.8081857217368968 4.934251294693108 3.36361594208795
4.6287616573739445 1.890652141253069 7.995939125207517
-4.997072348260019 -0.1710787720762026 9.721298234077004
0.3281003830415906 -4.989223400354804 -1.4744604712471876
-0.8315037653964843 -4.9303753901839436 -4.5395004705036435
-2.984071984904358 -4.011896607455004 2.51294840008679
-2.703288030670466 4.206213715829688 2.484539317641124
-4.127711299785971 -2.8217015124954687 -9.108696814653626
-4.864763158130295 -1.155023556165917 5.4121790316151355
3.6834204172393994 3.3811852995456975 -4.040100642867412
4.7751151744691835 1.4826581097994715 -6.1473526394326194
4.708977445596547 1.680931710945754 5.594464500015054
-2.8244976842275173 4.12579844779085 8.684351303251187
4.916534033754897 -0.9097763983143341 0.5735287031791252
1.7705739989309022 -4.676009806909073 -1.2811522991620716
4.189532652380227 2.7290687339530124 5.887649513893933
-4.841688658961686 1.2482191032354026 2.6605626217591585
-4.350111994493071 -2.4650609800504966 4.600400454636905
-2.838247740396584 -4.116351511245569 2.27761055234674
-0.7720660056456223 4.940031789667595 7.190290358101738
-4.999278928289371 0.08491287983503513 -6.812029352097932
-2.2286492348412414 4.475837640938459 1.2442434004440273
-2.1505707048235427 -4.513872577239501 3.058105184219336
2.7827476477901616 4.154072162194384 4.415399188243104
0.14035739081263815 -4.998029592033672 -7.798215864921434
-2.2260466725808117 4.4771325881072475 9.974343009137591
3.7225387290810104 -3.3380691140975403 4.507829007194335
-4.609554925543124 -1.937008876696522 8.372558910181574
-0.892525073668915 -4.919695010147712 1.4987207521782846
-4.442933888063462 2.2935427762083025 8.82810078126576
0.1313076565947133 4.998275532553163 6.469643670662954
1.5075927086308565 -4.767301566387748 0.21841186196783546
-2.0145566995003867 -4.5761950684491275 0.9786177003539809
4.9049463653288266 -0.9703098233283702 4.106880642003933
4.868370074227621 1.1397248880168185 3.9322171322687325
0.9785839057315162 4.903302309611682 2.687437268098229
-4.9296853881853 -0.8355848092876927 5.036638347274023
4.32707455527974 -2.5052795838090898 -0.5183133980863026
2.730471181359058 4.18861876133024 -7.034427303506721
4.844176025775715 -1.2385308358292098 1.7614791022104228
-4.641525396161575 -1.8590970918128855 9.022968585653594
3.900578434997695 3.128176445220271 9.102818678438549
-4.983321327374109 -0.40805458965480457 1.1749775779470362
-3.377895197749888 3.686437851506281 -9.803568580386816
1.3703332719775507 -4.808553495981021 -5.422042385821381
3.8660462150635544 3.1707549042763885 7.419392606993213
-4.845799985225366 -1.2321617195765517 -8.56582196713285
2.523346121436897 4.316563951967973 -1.1701840235877725
-4.316147575775178 -2.524058260843053 1.4075929962291696
4.099934902591515 -2.8619108641800683 -9.23206369772904
1.13308855320304 4.86991892443809 0.706648873113501
-1.73617690533447 -4.688890034260051 -9.860905852795089
2.034593069131794 -4.56732208663248 4.552616138639419
4.517266368986309 -2.1434328894614922 4.1556556844889165
-2.0787333455024326 4.547402300027596 3.9298987466105366
-4.935986663805867 -0.7975184353547122 -6.503115875611581
2.9340785407427012 4.048602612847201 4.470799251264406
4.830723563798988 -1.2900038178847397 1.3218451736853432
4.137097641165843 -2.807921492396113 -2.9155832429543693
-4.695142496178407 -1.719196597419734 0.773926718390296
-3.779423523473533 3.273523763502398 -7.204710443047857
-4.8093409104987614 -1.3675671854073363 -4.176059440676023
-0.6206120824577054 -4.961334562706642 -8.393451855846848
4.061479897478215 2.916227193203635 -8.709228340248007
-3.6810621523168296 3.3837525664239383 -9.074341656711765
-1.4004456361836852 4.799870000332725 5.29449346381146
-4.680587464020165 -1.758437087773483 4.035521632121348
4.527035292544593 -2.1227226526458187 1.9592726406771632
1.5068955188477378 4.767521986868713 6.461091484497061
4.803293374063928 -1.3886586199183588 -3.649730769212982
-4.831711881797074 -1.2862971240351042 -1.9111426372289753
4.57572391962307 -2.0156266051501923 -6.299949256547313
4.984349471902847 -0.39529778894120154 -8.751586233007632
2.0930533083804024 4.540828982496242 -3.216815846866976
-4.93488775893688 0.8042902502796694 4.340845979813107
-3.06322219235542 -3.9517932385514873 -2.7864425614721178
-0.20442512178440286 -4.995819289124 -1.929319224305992
-4.379788950557439 -2.4119387945333446 4.049746057950461
-1.5622387899817036 4.749674721817959 2.477504221646372
4.954576472403204 -0.6724373421432095 3.1576554614036407
1.953961752043901 -4.602394319433041 4.08446760667664
2.6000792096729364 4.270783078479468 2.0906074487785595
1.4406745611227385 -4.787949123469652 6.561314845538202
-0.14461748108959457 -4.9979081408288515 3.9508612083197807
3.580409652312182 3.4900811912661514 -0.7361960622295545
-4.899727383818838 0.9963290441695432 7.237991968016587
-0.6402651107979349 4.95883661637434 6.623353634287444
-4.032966352683534 2.955534198435619 -3.18086748873859
4.582636949179374 1.999859643078973 -7.614372993239929
0.06366642919008567 4.99959464214792 -4.210495972091324
-4.698588603111789 -1.709755871084528 -0.5140288546554572
3.0965093589829267 -3.9257648668420204 8.612516514662879
4.951381939974117 -0.6955694677730981 2.860138226125885
2.1395034490426985 -4.519128786783399 -6.738147668697212
-1.8967493470246575 -4.62626652005281 3.5505960640929928
-0.5826203469010647 4.965939340283657 3.434935383072572
3.3682883468347202 -3.6952176678211295 -2.6699959142462726
4.583874830270778 1.9970206659947332 -2.182087878807102
0.07913487068868692 4.999373728002447 -4.4798925779443906
-0.18129670127944394 4.9967120695618625 -7.4015143343564915
4.213993095419504 -2.6911451450556783 5.864211842873354
-2.614587684328691 4.261916381272249 -6.824961465287272
2.6378128184797474 4.247580903839729 0.03379754918620925
3.922829688161934 3.10022696551 3.5683847187596953
1.120591936884002 -4.872809632131196 -4.175855817665792
4.972647314850703 0.5222821862825638 2.6235023464994747
4.476655483706064 2.227005990159081 5.018936483163705
-0.7863726491104388 -4.937774605703568 -6.038501598373072
4.942482327544288 0.7562198370265123 1.8829422979484605
3.5801269848170483 3.490371151122011 -0.13283610043281513
-4.451909814773592 -2.2760709569612625 7.504560756310273
-2.1297090293436955 -4.523752806059581 -4.003224501142144
-4.278072358760755 2.5880681778514236 9.552078447986574
3.5247909598328646 -3.5462443076416084 1.0248771343582987
1.3730899411271347 -4.807767050677007 4.531070893281866
2.383077355239508 -4.3955593863517155 -2.9599834679086
-4.932767598413344 -0.8171926456126835 -3.236400950637865
4.8250825036443725 -1.310945778064431 1.4759330271305195
4.434888578730141 -2.309061128304954 -7.303329702729333
-2.062749668390782 4.55467493961465 -9.248680648808026
2.983831570957248 4.012075417556205 2.0414711589200447
4.905780141364648 0.9660855058390282 -2.791124146281552
0.25739002606150985 -4.993370642610466 -3.3179053808137926
0.3412136918725831 4.988343734796017 -1.3015824139870968
1.3160005040546463 4.82370632121483 3.774896499400949
-4.38461819409463 -2.403148620459073 8.218188040249558
-1.6776151082033177 4.7101600343011665 -0.5676322601005896
-4.502640022500938 -2.173990070762226 -5.900641529225061
0.06753594629459728 -4.999543868790241 -2.7541896782142983
3.976308921760021 3.031330954998424 8.105792973360437
-2.237097164057999 4.471621213672247 -9.282357732201325
-4.989834437403458 -0.31867269619865546 -6.296195552156663
-1.6607078577048273 4.716147730018372 2.4744546199236535
4.399980172929142 2.3749051513335093 -7.3375829992506265
-4.993062604584363 0.2632979808149157 -6.007190279221977
2.203502385247617 -4.488271074501635 -5.048495277714937
-4.823205020582135 -1.317836609535219 -2.5421633118355675
3.5302970869795676 -3.540762979594028 3.715160620217574
2.4447435443185936 4.361562678961814 8.004795444065987
-4.879617656461867 1.0905647742090312 -7.366727361175185
4.9805779774628185 0.4402760615936141 2.490031915581259
-1.5029237847299883 -4.768775534379123 -6.377084987970494
3.4820174060979032 -3.58825232998339 -6.359079549343858
-2.578133187387535 -4.284066907518017 -7.234061541794359
2.014307329857846 -4.576304839155817 -8.440819064143941
1.833087226821809 -4.65185889928561 -8.913620974215972
-4.929504740146399 -0.8366498771135891 6.736223075395632
3.945986696137097 -3.0706984537575543 -6.457955067573828
-0.0795919766663134 4.99936647158921 9.979928585058104
-1.2276168928779452 4.8469533486841705 9.807671239580639
-4.214056709392664 2.6910455310199928 7.525136692931564
1.5202297439549606 -4.763286840574965 -4.291118138105605
3.324301383388994 -3.7348387264242113 1.4032198944671386
-2.0040963811820034 4.5807857071612945 9.532834925679285
-3.5922513455365612 -3.4778916415683176 7.740471781008516
-2.965697540179326 -4.025498490892065 -4.175281865750882
-4.579812210959294 -2.0063200423532006 -8.413046385291077
1.0303969756573412 4.892676371124112 6.810718415569937
-3.838030881537134 3.2046090170826287 -5.007390253780288
-1.9423452423689627 -4.60730886303997 -0.0763589014216457
4.462219612441334 -2.2557916859373135 -3.8026186478919737
0.5967385868595757 -4.964262589645399 -2.227886983137126
2.0219322223599203 -4.57294107639522 -2.9928005140024165
-0.08592747409419543 -4.999261592395 -4.8112562508281
3.167170243815823 -3.868983412562998 -7.845634537172699
-4.019060445916037 -2.974416435550541 2.818307437538932
-0.5255084382296835 -4.972307400126162 6.257829489870851
-4.700501363942565 -1.7044902251330427 0.9385292970037611
0.031784823675040985 -4.999898971477719 -9.502294681849786
-3.7456195986320506 -3.3121494263308042 0.14445081113806602
0.7077943053620016 -4.9496492018422 0.4389707522899666
3.2286356854858385 3.8178412238341437 -1.9058948914073053
-3.94124376440753 3.0767836435990685 3.4380172349446436
0.06787384912260958 4.9995392928354185 -3.496550058742618
3.957136204380785 -3.056316910920534 6.9674609517957755
4.7396920975715995 -1.5922684510525642 -5.759684941919345
4.4427136149413595 -2.2939694277855316 2.2324871415858425
-2.1335548954481363 4.521940237122699 4.5810822994322855
-1.4529529176505758 4.784237433394237 0.4850924806345951
2.7685782096388367 -4.163529115679752 -5.399618735754295
4.238312736770712 2.6526788620802098 6.802572505696119
2.202350294688186 4.4888365062103635 7.819898723060408
3.8115860824695447 -3.236017851607817 -1.1007259836700012
1.2250363896942846 -4.847606197281787 -4.583102222989856
-3.4140310556420856 3.652997666453044 -7.170487482016079
2.4430875632278317 -4.362490476597227 -8.42952174799336
-4.933583273863903 -0.8122537041161099 -8.276225380305274
3.3621310995173914 3.7008207832395748 5.2245988223845785
-2.996368508658417 4.002721044529601 5.52779096468816
4.699839552863967 1.7063142082674658 9.424735255340458
-4.833000845159221 -1.2814456019239575 5.552771263431707
-3.793287607370184 3.2574482540436134 8.351071150929737
2.6738687532236947 -4.224976436683874 -6.592984889248483
-0.026600265709369568 -4.999929242085751 9.941790092850521
-4.905313996546233 -0.9684495832451095 4.351115253451969
-4.302590036962829 -2.54710011068042 -2.894700955470255
4.869892680352706 1.1332013421484912 -0.951096388650436
-1.866848474875531 -4.63841317390494 -5.834420120210336
-0.33299403506111797 -4.988899174428535 8.838019530226337
-4.813662257291933 1.3522779569020291 -8.153175387471471
1.6576295540616033 4.717230571161593 -8.485649453803639
4.529233654597805 2.1180279748054827 4.400250562017767
-0.5003676862845453 4.974900217946311 2.928113234298994
1.8079554361790748 -4.661683938319985 4.846514154651079
0.47206684957688655 -4.977665405542096 7.228367020334275
-1.6873512123093213 -4.706680984124404 2.8869142441350437
-1.3772354996784837 -4.80658115279721 5.9607874457200865
-4.88562084084877 -1.0633480142757428 -9.842228052513814
-2.572899233117398 4.287212326935057 4.7117892905573555
-2.0893098243091073 -4.542552636794146 -3.0457073785185944
1.631123940301972 -4.726461117091071 2.5409780389997945
-1.2590253345972313 -4.838889873394757 -2.929259155706074
4.83827054601421 1.2614032359128278 4.063374328114689
3.8553000464718967 3.1838124240717747 -9.168488963338977
4.102288742738859 -2.858535826467465 -3.9723996789647202
-4.930176261010489 -0.8326836346227963 -3.7300331294562934
-3.656127635988202 -3.4106789220569156 7.886498131429441
4.7122416689211315 -1.6717590896069296 9.442287201087606
-4.426260698793075 -2.325557186207177 -4.2917725094627475
3.0090003228680606 3.993233909625118 2.6633982790071364
-4.98974294347833 -0.3201021055978975 -3.5228936821448027
4.914923257271201 0.9184385527266649 -7.428105560133318
-4.665427330191921 1.7982735683700297 7.88511444493361
-2.537171943461633 -4.308451987583373 -8.853762355235823
-1.2316584552465075 4.8459279245176345 -7.3518256306419305
-1.4949125023441054 4.771292970499221 -1.7660274080542404
-3.564297569184893 3.506534305878479 -5.2197534583264975
-4.68569621439918 1.7447782054935213 9.46064224307824
-4.992868506304128 -0.2669533269251164 -0.3604371677926643
1.8202492492104116 -4.656897322332642 -3.7195107797761917
3.779191494376453 -3.273791631859406 -2.7438355082238752
4.62175489726051 1.907716349368661 9.45398500449177
3.4779288636646015 3.5922153080360664 -6.665170247108982
3.1893656947160913 -3.8507072681999786 -4.609158961203761
1.0630483926170395 4.885686043428735 -3.121469966181034
-3.5398264032214044 3.5312361907774754 4.260088194237557
4.644240351528639 1.8523043910851 9.709068454716636
-4.21285685206254 2.6929235310401416 7.979203414210673
4.651176968320262 1.834816832647646 4.745512716930847
-4.149495321827848 -2.7895678113515725 6.366174620287474
4.990073018428568 0.31491470392980747 4.383712254129794
2.8082829699261334 -4.136852276891557 -4.5753292229955145
-1.3722433467148678 4.80800875596091 6.45248818151369
-0.5707371840065765 4.967319102573565 3.0245003565003614
-2.617593038553034 -4.2600712065080195 7.009320173689385
-3.586155406416901 -3.4841770048358383 8.00294895404025
-4.516020972730167 2.1460555849887197 1.5624498566039602
-4.865649427098875 1.1512843491389906 -0.6365352820854469
-1.9903444552016425 -4.586777621560486 -6.833560816986946
-3.0284196146707263 3.9785266918141455 -3.8475389495701524
4.354370966965474 -2.4575299554732095 2.902807588512996
4.998149767993663 0.1360106492333961 -2.428589445145093
4.73030522932384 -1.6199421092840105 7.96802333333526
3.912435842371329 3.1133335477150768 1.5389293154820916
2.1223223102701168 -4.527222991120463 -1.7523293595373683
-4.162816913280771 -2.769648957269414 8.07052286430568
4.887536824159144 -1.0545064212646342 6.394851128023152
0.9416786465299865 4.910523528776688 -7.343756408157178
-0.41413037492342564 -4.982820088320045 0.5417226930181958
-3.3437043714089345 3.717477784280732 -8.974374495507424
-3.239609978178964 -3.808533469628867 -8.495712749588849
-2.5900409242650464 -4.276878302060075 -1.3759319804377945
-2.1305515152191874 -4.523356081605473 -5.59685908991876
4.800845570252983 1.3970976381707592 -1.2946829279003236
-4.94538464043447 -0.7370011927770742 -0.9683243273117466
2.687571079822985 -4.2162734364482475 -1.742007229509909
4.9541875271990445 -0.6752969312424061 -5.673715149587948
4.203279274048025 -2.7078484714544686 8.212212489937276
-2.7023349888105423 4.206826072973582 5.732938644760781
0.5459254113785427 -4.97010718649117 -8.99198734428528
4.250873953365238 -2.6325027317366634 -9.979500039190707
0.5711670297371212 4.967269695128429 0.428978165955165
4.800764727532794 -1.3973754079977876 6.417173582930133
0.21204193676732014 -4.995501798323364 -1.1343524048836926
4.248273900968797 -2.6366965813963805 6.39223875424122
-1.8473892368277498 -4.646197693561154 -4.804337493864958
-4.986335305323288 -0.36940522855871183 -7.668618975381774
-4.299397666342273 2.552485006155887 4.848590322902599
3.713217029435516 -3.3484353498776236 4.2839644308375995
-3.963058717877886 -3.048633398533199 4.583044330763899
4.996764121474028 0.17985637144646158 -6.404018725441809
4.96415797797462 0.5976082075331087 0.379102841824718
3.9633089928335656 -3.0483080269757163 8.848101989175056
-4.916939183878881 0.9075841900542786 -2.321093825503821
3.9786723754303797 3.028228216133516 4.348037246535819
-2.5325244442872688 4.311185444757331 -7.169832926544393
1.1650937284093572 4.862361216941949 5.27287613911702
2.328982241904638 4.424459483020819 2.1243751393268067
2.114040664562637 -4.531096122195551 0.17084012041327057
-1.0255925011961156 4.893685729743002 -5.166818653577296
1.3531755798239955 4.813410002292345 -3.4219180565501883
4.85228184950283 1.206383377283272 9.906136303290193
1.9362785620984033 -4.609861747380082 7.095924358504696
4.960921706690971 -0.6239036945573726 -8.731297578279316
-3.7468515708916543 3.310755700094276 0.3081354930662794
3.745185533643598 -3.3126402337994265 -2.734022800319904
1.6395815466519745 4.723533883849921 0.6647588243592466
-4.66840460935601 -1.7905302017401348 4.761502127377504
-4.949008227681492 0.7122622847946483 -0.2401944926286621
-4.662566678208057 1.8056777041498542 -9.692876724148325
2.7346282224235887 -4.185905933621108 9.279325512459021
1.091211164810679 -4.879473147153545 2.6223103917531603
-4.855650309852845 1.1927531464749817 0.8547757687063964
4.602918762380519 1.9527260091793208 4.128638976224433
-2.5884416034019693 4.27784642849388 7.206628128989266
-4.744612495033822 -1.5775462820370527 2.00514399088412
-2.3256282912672646 4.426223339468684 4.378559637022427
-4.8999630169644774 -0.9951695495644831 1.663686904463642
4.91580917998766 0.91368490517741 6.053713597052617
-0.3908221982018327 4.984702399280491 -0.4906878605570526
-2.0516242509153133 4.559697131724451 6.8196254626327715
4.586646154866133 1.9906473947064844 5.864931217100162
-3.2854160947339057 -3.7690902197298772 0.38282026204740305
1.2579424154983976 4.839171507529988 4.3360224727848
3.266744610431302 3.7852846194464744 -7.08887522708266
4.9163038842281095 -0.911019274177884 -6.127526647829839
4.29953514562811 2.552253422273867 -4.621452352336544
4.8885381438868265 -1.0498546641147715 -6.099335545073037
2.451307438237275 -4.357876988080619 3.7309399264653624
3.547056149529148 3.5239739885656722 -3.6434984284446514
3.9455388477979128 -3.0712738726003455 -5.079530435160457
0.8338782209763269 4.929974352122063 2.9639350339432795
-3.9645354134758106 -3.0467128114241726 8.792501345710061
-2.0477503415060756 -4.561438209475357 -8.398575369362513
-4.907126841012129 -0.959221646033034 -8.08868843879176
-1.0521005136635782 4.888055289084693 -0.08270089895224153
3.8658984045387728 -3.170935118507563 9.720974438884802
-3.04839155424712 3.9632447479300126 5.704564263413461
-0.4053912886455016 -4.983538692845711 7.289416485335366
-4.615427343860157 -1.9229743715265628 1.3514254783345123
-1.5871507591771519 -4.741408278944494 5.288705507542247
-3.0554197380489247 3.95782897866255 8.906759704282457
1.5047439403839702 4.768201513555999 3.8556028664384883
3.7124341778429026 -3.3493032820549247 -3.785983355751668
4.955114434419577 -0.668461623286451 0.6736453628034234
2.28593397682817 -4.446853477863033 9.112314794816104
-4.373230217970898 2.423810524902104 8.10382389238336
3.779205021639064 3.27377601622623 -9.851432545114303
4.01554676863077 2.9791582953812608 4.115639228139141
3.5288295788401363 -3.5422255438499324 -0.11901633734771444
4.963792414741293 -0.6006370479389402 -1.78086350896373
1.6048638063504304 4.735442129629123 3.254352568776067
3.1932634778631726 3.847475582891358 5.9394688963053195
-4.061743996094364 -2.915859343348266 6.188618392241626
-4.7433011953065805 1.5814846728954297 9.710965759481354
4.779840007149793 -1.467354594517042 4.214742316851668
-2.328313628058562 -4.4248113687926605 5.731665515918307
4.3936826709732415 2.386535687306905 0.7723346615797606
4.725054194080661 -1.6351950535030235 -1.2474461927191616
-4.716110582995421 1.6608133456106942 9.742555727265977
-3.103681012421093 -3.9200974698515823 -2.453844412129264
-3.40391120903912 3.662429314127146 4.801820226625823
-4.460214899787337 2.2597528731511867 -4.0402083847867925
-4.180015468036042 2.7436236416424586 -8.692839642887973
4.777070116313134 -1.4763472165544314 -0.4801434558673474
-3.1085347788935636 -3.9162496764646075 2.1154044562679246
4.343019752332288 -2.4775349504803335 -9.613316395567315
3.2697022733641634 -3.7827301045088086 5.680387040578573
1.6211435809244588 -4.729893602400314 4.296559857827818
4.888993018092461 1.0477343504167291 9.134723127452077
2.1883800217534417 4.495663786404673 2.4015386314036054
-4.930184440190038 0.8326352056621443 -8.846206935867976
2.7302074612028155 -4.188790663042553 1.6936786942746522
1.714358788289797 -4.696911106782152 9.802350784092916
4.9395813241915025 0.774942798984885 -0.8778583038248655
4.882735398407795 1.0765198693639935 -5.398694860519169
-4.997984949968875 0.1419381551402574 5.596764186619756
4.895041665753928 -1.0191011188949828 4.268774712964152
0.3857210871828559 4.98509972246318 3.8416220507654195
-2.4743753505602815 -4.3448206665568705 2.395214783038817
0.079295144761238 -4.9993711884613345 -5.096833566497116
3.230238097101777 -3.8164855346289857 7.874366748988063
2.8019773045347267 4.141125835430783 4.51571903453331
4.137750977004608 2.806958648127437 4.5949492759941695
1.0275282523959988 4.8932796456495335 -0.19100238627925492
-4.558928439529592 2.0533318005739543 8.413043572510727
-2.0164716082955616 -4.575351598832368 5.369309924191235
-1.9506856257955099 -4.603783833903888 -8.816008134933737
-3.094745366125764 -3.9271556015573292 -7.955539716225877
3.7844103770340363 3.2677573499568635 -9.86796002444494
2.1282359829811655 -4.524445999317948 -6.52279624863672
4.2234366709498055 2.676300186166796 -2.0184350508537445
4.854232547063812 -1.1985100663016481 -7.220447002426072
-2.6246441490276835 4.255730617764093 8.677843759002403
2.2620796912142174 -4.459035262318094 -3.055229401134058
-4.783587353167484 -1.4550917615793524 -0.2732273271449195
2.4090482027648443 -4.381379549497564 -8.767384574321637
0.9494066176996568 4.909035248831291 -9.862514692811551
1.020029671903799 4.894848257958139 2.054873676424192
4.825297670118264 1.310153576780696 -4.2422740790644635
3.450150857536353 -3.6189030189051996 -8.652710820197386
2.757644632164984 -4.170778834065845 4.730132254315535
2.057968158488489 -4.556837396555587 -4.463298930063839
3.202424230150785 -3.8398540402133974 9.099151415252955
4.956998500155379 0.6543438465037545 3.5906759447926024
0.05857590094373033 4.999656874609359 1.5846848419128516
4.354755042749602 2.4568493070693025 -7.064269030594197
4.968041568086595 -0.5644138355530286 2.812957012165022
-0.029938662100756186 -4.999910366847751 -2.6214559223986544
-4.940728238021546 -0.7675965594089851 -1.332782631993748
4.941244526552866 0.7642660065784268 -0.3825826839967288
-3.598152108404605 3.4717864860592296 -4.305628130099035
-2.438755448449682 4.364913729119625 9.20996127751684
1.5728306346905585 4.746177808993137 -9.723254801155623
-4.994634534111101 0.23157260344175482 3.9550523357827387
-0.8315198614473261 4.930372675571149 2.5471454870000887
-4.293372650812259 2.562606345355703 6.414991741466075
4.823411100540357 1.3170821368403975 -7.28023880513144
-2.0571967572359626 -4.557185699751311 -5.167014862740045
4.976557414155731 0.4836075925909641 -1.0826949799471777
-0.40175645630814616 4.983833037915167 4.766717556404467
1.8546635064742114 -4.643298749569404 -4.0720339546436035
-4.97984810124727 0.4484561165866268 -0.3609607886075299
3.0983486393295054 -3.924313406083286 -7.234731695023768
-2.744659703678866 4.179335247500664 -2.525886403077646
-2.7487537317829003 4.17664373893795 0.6396150981328237
0.34948400886988407 4.9877711382484495 5.191421546846026
3.8600483333489315 -3.178053942935855 -8.33417602963878
-4.673663995198734 -1.7767568376069365 -7.402425950159652
0.2763637419897829 -4.992356465849911 -7.330499659134664
-3.8127081837120995 3.2346957052951337 1.4192180522986853
3.883209073150563 -3.1497122557784776 7.344859627621151
-3.2151617509322876 -3.829195074077844 7.579451444442217
2.079582421626409 4.547014069877334 1.668807112343341
3.2217993792946698 3.8236120043195387 4.399144848578501
2.9245135281753902 -4.055517306524425 -3.3502912763122428
-4.99995800231365 -0.02049329401752932 1.659054571333673
3.769165476003356 3.2853297573461933 0.8456120091843307
-0.6856523361219762 4.952764972615849 -6.81618784697217
4.7456159026447855 1.5745252314792921 -5.483658497980917
-4.781022043646206 1.4634986225374658 6.864363042140454
-3.503175489598176 -3.5675988408281807 1.0856909879524128
-1.413467166136565 4.796051560424874 -4.726058557296708
-4.999999978234567 -0.0004665343807649399 9.518281859055978
-1.1826059255342036 -4.858131659896775 -6.451021442659095
-1.6937018883155908 4.704399421128716 1.4855428247497677
0.6113061363761453 4.962489779095658 1.8234303541810135
-0.9679792287035355 4.905406834585538 8.676438509414162
0.7846621808285438 -4.93804670512313 -4.789854527354198
4.770317172547658 -1.498023388768317 7.352595135431322
-4.692072588072281 -1.7275574746620415 -7.295922800003578
-1.5329069112228944 4.759222247544769 1.940071644681554
-3.589765441898379 -3.4804574515646842 3.135317029506151
-1.7723804351525152 4.675325399700921 1.2311323824649119
-4.974226029985455 0.5070260374134083 3.5615188865520846
-4.445349641685982 2.288857042971952 -7.8208040894799336
3.28070569690102 3.7731909745361674 -4.911293112052924
0.21914583315996428 -4.995195201772262 4.581359069129164
-2.400382298234409 -4.3861332426549575 -3.7704422585316744
3.437204408914018 -3.6312017089858886 5.373307561818114
-4.997522485544371 -0.15738172218659366 -7.1393665746864965
0.06358465347763131 -4.999595682836976 -3.712870596686482
4.892607408457128 1.0307243796041805 5.22284721611226
-3.6005550134809647 3.4692943943829686 5.621987380969177
-4.512424677933932 2.1536070964716028 9.816736471075714
4.805809782399843 -1.3799247571480053 3.9324840076701513
-2.7085327652681173 -4.202838357523287 8.099596051230165
4.753487590969571 1.5505985046098523 8.9764702954098
0.42337335540415166 -4.982043255726894 -8.458298304403389
4.847597211818301 1.225071945630717 -9.746406739405266
4.4067286089471445 2.3623596184930786 5.551515466028572
2.228789037285003 -4.475768026526642 -9.36041650278723
-3.748253009478502 3.309168985853601 5.954321115917999
-4.985128281810532 0.38535180535813773 -8.546820432099596
4.999150839238894 0.09214600662573678 2.330117916068259
3.178229542663174 -3.8599037519273756 5.047992768727529
0.21429490316435149 -4.995405658650535 8.31052399631971
0.6589625249424482 4.9563866264367915 0.8379263668817689
0.40971967540162957 4.983184703338698 2.2364907355296264
3.0951589764001533 -3.926829625895368 -4.929235162339176
-4.459631044342895 2.2609048959063065 9.94889726325787
2.681091238136032 4.220396873848501 -2.0413989874814327
0.4095182518062129 4.983201260378471 8.024289364485554
-3.1885927459576227 3.8513473357289434 -6.896242066120886
4.783969335091173 -1.4538354105287539 0.624181518459892
-0.639568267709172 4.958926540183822 8.049953164976394
-4.59544154778315 1.9702581000743036 -6.6253320813027
-4.437769686570211 2.3035190923798607 -9.044260771006641
-4.980918651311475 -0.43640507446348475 5.068929033830559
4.724883768386333 1.6356874320111912 3.0458185548311327
-4.9901074215714285 0.3143690843224672 8.47930024567728
-4.700923303973678 -1.7033261843103338 -5.124883745638762
1.1044536303282722 -4.876492815380199 -8.950173319660514
2.531579132207355 4.311740611095739 9.798169926131482
-4.672442150004461 1.7799675151141656 6.53796467383841
-0.9751005096351527 -4.90399622717119 -4.034465991372218
4.003322955321909 2.9955642732868633 0.12798894961566454
-2.9210742713888416 -4.057995207122619 0.45308754235384185
3.7262544928265715 3.33392073311436 -2.462686216746068
-2.5419620302085786 4.305627600824052 4.665865875410466
4.720818524991114 1.647383517612315 1.975099870759296
-0.11069611727493608 4.998774486773759 -3.533054084288807
-4.527957236346486 -2.1207553526556273 8.427521193939093
2.961454347700505 4.0286211222310016 -7.812532667627159
0.8343685227213058 4.929891395182237 0.9814830667864953
0.03298600186896179 4.999891191184134 2.051998865593312
4.905248672038194 -0.9687804010546139 -5.083825232304646
4.90726984233811 -0.9584897988392478 9.775434414764696
-4.856115260039387 -1.1908587578771024 3.60101656443668
-2.0107113558332865 -4.577885957898369 2.823465020632028
-1.425722784567145 4.792422617170371 3.7374746706582336
-1.077129470601693 -4.882600956822226 5.673121268913956
1.8991429542337985 -4.62528442794431 8.474665599076893
