3.8867499179022236 10.945079401789638 -1.3765711388571784
1.724574422696658 6.390866716151856 2.9738640695409604
-3.976346562911673 10.434359311653983 3.2947961070013214
3.999758753834114 9.95606924622347 -1.9382927167260195
2.940199837819769 7.287948209623458 -0.10678099417768028
2.41418864220687 6.810690795824376 -3.5226404336107775
1.0163932130351592 6.131286410640345 1.6122057526404125
3.819402775293666 8.81165558861118 3.8179653376160365
-1.6273210118054307 6.34598490362498 2.1844936409579647
2.26239015442031 6.701274368914255 -3.146595318669009
-3.9970929322024156 9.847526752059592 -1.8959224793715101
-3.499768605340901 11.936909835038845 1.5264757588438043
-0.6099876309116286 13.953215790990269 3.6938988863484914
-3.874860717411499 10.992700569487718 1.549343015067505
-2.2613681810603277 13.29942630614595 -0.17235392544493333
-3.031002299446536 7.389822791312856 1.0254506270793424
-3.9225682002159012 9.216763947040878 2.2309278797315306
1.4448627004158507 6.270070808051845 0.88412956583318
3.9780940641142584 9.581947829740232 2.5235881927887256
3.6602881339449693 8.386838267097296 3.2664027956016195
-1.7138075113077829 6.38574159554342 -3.0175288684870454
-2.564374731152223 13.069850523759742 -0.05939074169644787
-3.9042031752853017 10.87017099819068 1.3778735187641926
-3.065574596823414 7.430515150597116 -2.1477272076130722
-1.36948487036058 13.758259063696045 0.3710589613684885
3.91620671778674 10.814447630951193 -2.289469298289262
-3.7857725544536383 8.708517841414148 2.9386436584549784
-2.0692820481550838 13.423166926280853 3.1810290567409742
-2.2518461006676906 13.305932415961905 -2.596671035838974
-3.8828117059575122 10.96113123769822 -2.511700647003372
-3.987129852348299 10.320617436383351 3.658326396595048
-2.8666965316900948 12.78963277067 3.2274579453083936
-3.4602837247968927 12.006598251744913 -0.2093901297294396
-3.2017397294648915 7.60232139252024 -2.1642808313022392
-3.9482747217353205 9.358808358050513 -2.261905064787717
-2.3540453955409872 6.766044175358563 -3.844553192453417
3.924353381508876 10.774241911187874 -3.7539577340456027
-3.8217715635619314 8.81929592363311 -3.7064966492430713
1.9067966411994681 6.48373400194035 3.4954557440252083
-3.8901412153301456 9.068978343544202 3.099262990343634
-1.2575518823377299 6.202821670868113 1.4028474073981325
3.999330371814881 9.92681135963112 3.9508174848224717
-0.2950002234357456 13.98910702641241 -0.029124012521879905
-2.916160580640402 12.737883757196247 3.6268834300951553
1.2691664481813751 6.20668792124736 0.25726141646836176
-3.7424826431231946 11.41202821003039 -3.3100995559734736
-3.657386167608863 11.619730354405743 0.882379445850308
-3.2650935959759386 7.689336932930957 -2.5789013183646814
0.9048001365199897 6.103676513307268 -1.0423100142362287
-0.34274962196788616 13.98528828275206 -2.7081103357798435
3.868669765889119 11.016560004375261 0.2557662308149169
3.8498799915845683 11.085552417157643 0.6259001618191595
3.3193029622674635 7.767909534834567 -3.279232937417067
-1.4108065131508902 6.25705664183239 0.37614321418511043
-3.114892350749141 12.50947118796859 -1.4227362095615375
0.8469131975556473 6.090685733302314 0.6407083403709661
-3.952146158380851 9.383120155301308 -3.139884092173153
-0.5706130661630093 6.0409091032505895 1.8781627599884274
1.6867754790096217 13.62695305778995 -1.7505350068541903
-3.5780072370537708 8.211742688651647 -2.2224295630074176
3.626570584058567 8.312402358723766 -0.10894711820438463
3.915418622954472 10.818227967635737 -1.3892366195590453
-0.1791540045345551 6.00401403372594 2.3070642060292306
-0.31076480240404547 6.01209011666678 1.8430431853941789
2.8274572557739477 7.170603338736108 -1.035249432353094
-1.728331605425182 13.607335562667883 3.784718164865059
3.6916200218576862 11.540110909713796 -1.0916335137397448
-3.4023913432329884 7.896732744634382 1.4785135269560739
-0.7420558960337055 6.069433495390058 3.619783450958103
3.168987741656762 12.440802469113217 -3.1092538249259087
-3.9204555142881943 9.206256615468645 -3.723914219243299
-1.0189123829753832 6.131949127038345 3.6633430269666727
3.7051500532552115 11.507270076284573 -3.0040106569402827
-1.4432553611132695 13.730551428759266 1.555775232265213
-3.4525865722446856 12.019813348098209 2.0934687604706266
-3.378686265337051 12.141139677933873 0.6884303741183926
1.3021806738262427 13.782105960006069 -3.483049932198984
2.3637236066680005 13.22688870450786 3.4928869858959395
-3.9908298053338447 10.270698106493242 -1.5707103949510888
-2.8988246630996373 7.243767866705477 -1.38178497223866
-1.3788005039161124 6.245148582113977 1.0413499092846337
-1.2924919349958324 6.214572072014747 1.7806925284840434
3.4423055494612536 7.962714427443158 0.21995929346914433
-3.9541705061782966 9.396232157141775 2.7329154909323465
3.3998947356709452 12.107300592311642 0.21925051300448217
-0.40326771190483307 6.02038002410594 0.13481877035772083
0.7959016937855075 6.079982079909664 3.1600590476625428
-1.094399849790554 13.847374295383595 -2.998402876632066
2.2635282616992045 6.702055214457195 -0.4457370261927398
0.1251716585751399 13.998041027289434 1.624061287358991
3.459068799948666 7.991308127854923 2.583806329609418
-3.4085370110650306 7.9067070333563265 3.5589453370352633
-0.3422225272133464 13.985333579748088 0.016028654340878745
2.597589989149351 13.041796549454133 0.021936627445068524
-2.090662165195804 13.410151273920087 -3.084303835965729
0.10934132364181608 13.998505280094582 3.4285299978139134
3.2077508029957 7.6103693201918325 -3.2138120272860595
-2.9160235482611587 12.738029705095691 -0.30506793951299027
-3.7892710344947225 11.28118110629969 2.014879128037701
-1.0128427303384757 6.130355364687798 2.589561341391386
-0.8035798572606945 13.918451149753546 -0.41143402870766366
-3.656344822304838 8.377920303929365 0.049678193132822734
-0.08185383136214715 6.0008375939090275 -2.1568576636594683
3.2385137118025917 7.6522289424932 0.09627338463098756
1.1201825377591086 6.160053244887429 2.376349104446782
0.7250801579721723 6.0662665615836335 2.9296200669956285
3.227868791492549 7.637614962604861 1.472742907533001
2.045453418774424 6.562541591288118 -1.0467889872209044
3.8047468337169468 11.234464066435661 1.357158025790988
-3.821689518057843 8.819030386687782 -2.537228517130841
2.0867443998793225 6.587449955008383 2.117584226813447
-0.8926997134434042 6.1008863543597425 -3.8601047238620865
3.9932723890257393 10.231895724507083 -2.077449237774413
-3.861906966330351 8.958042907117042 1.5981413774710633
-0.9855073257093406 6.123303557025231 -3.926587106083667
1.4940535833214175 6.2895008570052955 1.079232997984759
3.9203530936038318 9.205750907163965 0.4213342437584009
3.6158541523667593 8.289561825492642 -1.968947350648806
3.934810903233312 10.719210091556182 -0.6901683177715814
2.8406561962879477 12.816144949126535 3.426449727909672
1.8731908454209523 6.465717037837641 1.4176383435696538
-2.930308373423913 7.2772637225317425 -1.7351109474360085
3.3925118405411845 7.880834265143978 -0.08277319109406722
3.8972672599968 9.099273679657891 1.1969468899978324
-1.2726440722950416 13.792146762092983 -3.1965536460201296
3.57927642832666 8.21428438724831 -3.293069472293519
-2.3182490364968915 6.740288140834955 2.135625416215876
1.6520296279109774 13.642910664359519 2.2348850675299223
-1.3224540677799714 13.77506493170809 -2.7084035434111344
-3.9913455388189045 9.7370156093027 3.3872998730722923
-1.04727305384267 13.860468773438667 3.7584343015261084
1.2877231956449504 6.212947191892097 -3.2453033426545064
3.9028904528245087 10.876040018064986 3.963635992503627
-1.6094168285909731 6.338063699100137 -3.3394092527061385
0.8117367745928095 6.083230488173491 1.054933306056812
-0.5479861329555717 6.0377138924494105 -2.579888656044133
-1.3539401936502462 13.763887080136483 2.86844976296453
-1.7290262280556994 13.607002675726132 -3.7214324225753295
3.6380978647793527 8.337398446323379 -2.8649648332196884
0.15938710127211228 6.003176792507821 0.874470904848792
2.799014891914383 12.85753663753267 -0.7133837048637206
-3.232898799336242 7.644503162122631 2.447096373224186
-0.9112201766591949 6.1051729448344965 -1.4271358629501663
1.8670176604479776 6.462452112610295 -3.108218639048398
3.088152008165664 7.457694515904437 -1.1602045433237507
3.4881889651959197 8.042313165216301 -1.7143507631533668
-3.1588746306206983 12.453876742630108 -2.79521274056939
0.7667837964602643 6.074182555252221 2.839650578247922
-1.940408843439881 6.502170169905302 -1.2417234717391628
0.33163279521839917 6.013771244755812 3.475509555880823
-0.0885152365932204 13.999020511686686 -3.0063860830147915
0.09683792524521206 6.001172369777086 2.7071132944976792
2.151574196107558 6.627948921109866 -3.938710176807934
-3.914287394576338 9.176377396703574 0.34783756073451233
2.092472978325853 13.409040456635289 3.302699000703921
-3.9955212125534665 9.810764062516453 -2.9942182574855103
-2.039448799417668 6.558975647491894 -3.4733344796773746
-1.7927067904757321 6.424220034260749 0.12257489698154167
-2.3541522984378007 13.233878005701516 -1.1934381781972387
-2.556454850284824 6.923550975807466 -0.3787292406971652
-3.0626145435126237 12.573012273166407 -1.5704210047705907
-3.9928967456364695 9.761723734531339 0.22273374126820666
-1.024223938966449 13.866647814690142 -0.9803529427838082
3.999120243321864 10.083888494165027 -3.730817343528342
1.7181271701258412 6.387793053094082 3.618421627044749
3.1565345738615243 7.543113864254828 1.0558269830855327
3.780627060438423 11.306468151116103 -3.1345508348763644
0.24554927087252598 13.99245608060677 -3.640279898072495
-3.929273180966571 9.251125999024639 -1.0282865069817673
3.785032420360302 8.706350288207261 3.984302692385965
1.2238001296764465 6.191809715546778 -3.078946225242305
-3.7826216520270175 11.300681912542954 3.5691882134845185
-3.656658862154798 11.621371631004065 3.182677793583549
3.9892670204013534 10.292828687013596 0.5885677229168857
-3.3766158379965723 12.144403292897747 3.15614969015368
-1.2704682563330323 13.792876271334212 0.028307448052175666
-3.213866656385683 12.381398982735213 3.8962665765277045
-3.9465754287740125 9.348430828693363 3.7806540683379417
-1.1026509824714703 13.845017660668764 3.340311789632402
-3.8388935655258947 11.123786542259642 3.078173298647341
3.1952088052886483 7.5936249896149 -1.1752486279476901
2.2958664045858175 6.724485162254002 3.298219289853547
3.639449174079713 8.340358560022528 2.1733407398791993
-1.4391405723460449 13.732140727923788 -3.2358326424166277
-0.12242178241955809 13.9981261744959 1.2966288441235543
-2.2718104860369186 6.707755003719695 -3.4236370249562844
3.999903470021661 9.972210964236277 -0.07348246339669195
-0.2745596190501798 6.009433998091621 2.395496433022922
-2.6672461221982253 7.019094412159532 -1.4844469058164789
-2.6405296434948617 6.995402988448385 -2.4235476010225865
-3.781292291635229 11.30454153066125 0.5407602244393352
-3.3827920241361946 7.865352928130613 -2.1463906502170333
-2.3998115180474024 13.200141352791626 3.2608867209319863
-2.18222474190436 13.352296999942046 -1.4098208971455088
-0.7723211219830368 13.924731848743155 3.5779145689372482
3.2177946171625047 12.376088761338686 -1.8092409964072633
-2.4395247017475152 13.169971487184656 2.802183107266191
-3.3420837619140267 12.197834417864682 -1.4070561575583707
3.9220335800508606 10.785908771393622 -3.431498180914069
1.1401647442578158 13.834061078797717 2.4337828694580432
-0.8340413680792483 13.912080647984203 -2.512482819674906
1.8163793114544604 6.436186565360047 -1.9847591308253696
-2.6984532722185417 12.952685208018803 0.20527440156763088
3.9940346175762595 10.218374617578284 2.3246232666064044
2.9109406013551684 7.256566965391353 1.378374503099411
-3.2616314409715654 7.6844524744100475 -1.7138435183865992
2.2959906995007646 6.724572286279853 1.1680992304618547
-3.949935937827103 10.630877236125956 1.590182095963355
3.823261206273553 8.82412851526891 2.5574275614921262
3.9987612230073086 9.900457640307781 -1.611656028037613
-3.888443515733423 10.938086896268514 3.2343642785674245
-3.667272303872179 8.402779336080314 2.96275827246786
0.39684926064275444 13.980265150002861 -0.8622451023748603
3.967844140292291 9.49382524919932 0.5236411674257404
1.7957669955105824 6.425755898398251 2.6577039667208773
-3.4365124173972554 12.047042355466655 -1.6773087840731868
-0.08057242181712236 6.000811571725768 -1.6143507460596256
3.903621509178512 9.127223331499474 2.421146842734484
-1.8683318028855025 13.536854008059509 -1.8833368742480872
-2.233462640971329 6.681620179758596 -3.5921049612522253
2.0796570192804325 13.416873817125477 -2.5015654240832257
3.262425273120046 7.685571055895733 2.4729644381389972
3.7607048902409494 11.362754096863338 -2.360024818759757
3.720068103903977 11.470065747616845 2.599072342613195
2.9171885936733366 7.263211606838742 0.5510545271969782
3.9739743583723848 10.455552191300615 -2.253202161855265
-3.989142601495992 10.294518768382918 2.7397513077112743
-2.889067108046145 7.2335417506844815 -1.0600819631037552
2.204564887761229 6.662352077337946 -2.007281760782239
-3.925572211358635 10.768038289025277 3.5857178086789805
-1.6528085116687623 6.357442653333336 -0.8238192836851193
3.391213822588363 12.121242279770424 0.6923077595145477
2.6007676499767376 13.039080063248495 3.858694904753257
-3.0253801981418396 12.616691547869417 -0.3274968379949996
-3.990266453410398 9.7211207594897 0.07434664764659882
-2.9794732043103145 7.331153915116717 2.5059388300282874
3.9279881822300915 10.755585097961006 2.613104203721478
3.9977395784216063 10.13445543172902 2.050523396267679
-0.1573743083804313 13.996902966930994 -2.7586917969362306
1.266704808565957 13.794134806244486 -0.8418297728840463
-2.3752306082500927 6.781571880928223 0.03250189559072858
-2.7613436299621834 7.1060439952778705 3.0111677154222285
3.0441552322888543 7.4051745874282044 -0.7670770196858738
-2.4271250341242174 13.179475439239548 -2.880363740377855
-1.2094606260730385 6.187231321732328 -2.232160779662859
0.07453728390374907 6.000694536134024 2.0543452631511716
-2.3655949070821616 13.22551712684756 -3.3882224240722216
-3.131858528414109 12.488264889034085 -3.6412045341982697
-3.228361844611542 12.361711201704468 2.692280242484977
-1.9017522504831954 13.518996785702155 -3.2198374970808388
-0.8465387200573551 13.90939537466392 -1.0561015510229064
3.9367266917925847 10.708648681737158 -3.4242787565778015
-3.94349571278152 10.669956389083477 -1.2137955520554948
0.8604839796766462 6.093650384218043 -1.5825099438462136
3.7981508822626844 11.254611444060348 -2.883768134357253
-1.5073212556576128 6.294870767133384 -2.319953944061644
2.7699161467939803 12.885751988603662 3.682794702691404
-1.808146501285346 13.567997509793072 1.7894117375787832
-3.335913546195018 7.792811559401287 3.794454397085488
3.451702327504698 7.978675918537888 1.6524931471409943
2.762297594286826 7.106954545708414 -1.7070631308192432
-3.1100827232828663 7.4845705228853205 -1.1563492108647973
-1.1216985331203728 13.83950418684439 -1.261191254941635
-3.5757165064475607 8.207166637548696 0.04974304595678092
-2.2735063256243357 13.291074138840711 3.7015563521295825
3.861141683426013 8.95521059513884 3.3742216108050274
-0.34493113532286107 13.985100062970174 -1.566302069527107
-2.840268717505702 7.183464253314275 -1.9280729274217556
-3.3090036912599348 7.752669456615666 -1.9672460236090101
-2.574282871508816 13.061546618533894 -2.1372854295346366
-3.964801577372553 9.470520583908952 -3.8460369028867696
3.037886583753398 7.397838378530052 2.731106764682176
3.3000723952986784 12.260425222339293 -1.3877343202108277
-1.2728446807824536 13.79207943200084 -3.2586813460231037
3.837560437776771 11.128330574969302 -3.440161938766412
-2.6681378401845395 12.980107458763086 -2.2342203583088303
3.951858474203746 10.618720130482304 -0.9403504545929948
1.9286936394378242 6.495696810321332 -1.2427335751272661
3.9824595847719615 10.374186658845469 -1.3777880277318086
-1.2695701177231467 6.2068230048962345 -2.381547419551276
-1.8244575812177526 13.559684611638659 -2.5146223877424623
0.5784404427884641 13.957954857517539 2.5328461360148538
3.0072270650474775 7.362466042067717 -0.4267514101354264
3.805789404865065 8.768753880892689 2.159637650237266
-1.9595102594809846 6.512835027850164 -0.09185866464416925
-2.275899180156952 13.289419845772338 1.480835818323487
-1.3262960499628962 13.773716839914307 -1.7775080891509836
2.958399249389015 7.3078124357291685 3.3369511152409714
-2.1117646338119553 13.397123802775086 -0.2824650339778483
-3.774502125323942 11.324059555278781 -3.7526532434488624
3.1734009564076016 7.564938117855869 3.099148390621666
2.873892117613525 12.782219275384104 -0.17001554097937088
2.6303702624491314 13.013495027774773 -1.1450316962561473
-0.5357176624522129 13.963963494551475 3.1909997302528783
-3.4983918801583256 11.939395331757375 -1.566302525291305
-0.7302429793510447 6.067221695657317 3.8620502272296635
-2.683692117852507 7.033892008611904 -1.5426303269439368
3.0631493532245635 12.572375563528766 3.365922512829572
3.6381791171016893 11.662423746186626 0.2807439717935152
2.3024657486071436 13.270879312431283 -2.092696103704893
-0.4906516519921284 6.030206434032445 0.47452781478384765
3.736964612158881 8.57343227028219 -2.3882849997042293
-2.8368123991605447 7.179983083034963 -1.8032486170953668
1.5772617436132146 13.67590062326693 2.959045344238678
3.7511785162785567 8.61123805531322 1.8141169484105246
3.9170444170248637 9.189590822451803 -0.13628722712798425
-2.4885780117279612 6.868390273430594 -0.14229784760466746
-3.521447170864976 8.102788935619694 -1.0998518610841836
-3.926268038416385 10.764473211113348 1.0220094141617082
3.2058335689034787 7.60779784957634 -2.7501016476362468
-3.957057062722058 9.415449401367617 2.6712180290122998
-1.8264440788515497 13.558665764978233 -0.8814513145534688
3.994988578100233 10.2001655835769 -3.7477975298997617
2.850736677896978 12.805940197739949 3.619151521651359
-2.2931366479818722 13.27742647723522 -0.6523978590680359
3.8925897776828218 9.079269408198467 -0.3993571068018751
-1.7899070291907442 6.422817753195462 -2.861403191821239
-1.5426230384424682 6.309429019614102 -2.244649513216385
3.973982885328461 9.544522199095852 -1.9723740347981211
3.232259014032197 7.64362531285714 0.6094052478578806
2.4997137041164152 13.122728197818791 -0.0863696559791931
2.9520690375088785 7.300872659954443 1.4177027821877353
-1.872525285669588 13.534635632498494 -3.5167938246463804
3.9876952046075362 9.68649249586324 1.1383963024411274
3.0228431950774515 7.380378077284062 -0.20357106324684615
-3.4654269509014948 8.002297307413947 3.456688095258764
3.5771082777513437 11.790054850903406 -0.34654755941942383
-3.9997191715620013 9.952602229594863 -0.2583497839309876
1.1570475287963584 6.170999997896809 1.8834933732872159
1.9602446416414718 13.486752205837963 2.5414170898127377
3.3478040877312822 7.810888812743922 3.436137392275411
-1.5300862873216128 13.695786242919139 -3.458650592796875
3.3751228647178846 7.853247650971696 -1.5572832790007336
3.715208262613541 11.482304815281955 0.5142017356271085
3.408332896988099 12.093625292001583 2.393469483239521
-3.4132000069027537 7.914318885141105 -3.804904422537393
-2.5449211697056766 13.085996798440318 0.7819793570920393
-3.17342216015911 12.435034248919528 2.255611069213794
1.8267262689869244 6.441479079983776 3.997996882918067
1.7279296152094799 6.39247186499093 -0.03954948179972373
-1.426659374509956 13.736929625925924 3.8087041515601223
-0.34602492812795543 6.014994761720627 1.677236992805189
3.912562626527334 10.831777430266975 -1.5226896725822714
-2.7581783015817787 12.89697298169718 0.4164480610520709
1.8775836282492775 6.46804873774704 -1.4043276107882443
3.967709139812545 9.492768118265426 -0.2153675150363652
-1.5813423706006646 13.674147017600557 2.0186764644508504
3.5454077042065 11.852048652426062 0.17645830948692431
0.31039229868143475 6.01206110617035 -2.9532481160060664
3.5394110520557422 11.86348313772507 0.6986039171285361
-1.1983989758833475 13.816259935408192 1.0488296221074345
3.9990336201697274 9.912078985718967 1.0210445380777813
0.3964992455487452 6.019699967555301 1.4349608772086562
3.7794451981792894 11.309883198594253 -0.8707440915535605
3.463691680582416 12.000709859490915 -3.068153853381781
-2.798132387125117 12.858400801868328 3.8463291228147574
-1.5831686431707714 13.673360457031247 1.0427126388024694
0.6945485594241138 6.060761203150806 -1.5481531312227528
2.1990012681868563 6.65868387869202 -0.36117064271196586
-3.3502792967639223 12.185321174032559 0.385085940296662
0.5117044630771899 6.032865197341174 0.19386545315580417
-2.8150185194419626 12.84177246365693 2.9754596808475577
-3.073822980386323 7.4403882549791 2.1563041557298908
3.26050533533595 7.682867082309302 -0.7983201495467567
-3.377129534972292 12.143594202272864 -0.9200009246278853
3.8131952716228685 11.208114986444999 1.4852175675216754
0.8217954639286176 13.914671405809989 1.879485936265989
1.6460220927857032 6.354370936304494 -2.225407090511653
-3.987008515165848 10.322122802662308 2.3802976899585238
-0.1931308330452216 6.00466516029917 -3.634689718447577
2.634686217474051 13.009722335274848 2.9458878314148986
3.9970792239901702 10.152832186224426 -1.6914785476702656
2.5583059306430185 13.074909879205691 0.9179807671244573
-2.00952000209323 13.458587769767774 3.6855976982989693
-3.634063809509687 11.67140067859623 -2.881433982331724
3.3609871552945676 12.168816576371762 3.468669756030301
1.3133976369879647 13.778225330383886 -1.1969481886927271
2.1677994325206904 13.361643291660044 -0.737348597660409
-0.4761090806703873 13.971563941736706 1.7817387696626978
-0.17791944784209873 13.996041124673214 -0.7708127881055065
0.145251128655505 13.997361893752466 -2.2830637429950613
3.6068080735877004 11.72943213810273 3.1693498559144047
-2.7281529169708003 7.074733916098621 1.0483654008234362
-3.847515898294423 8.906098079180925 0.8613279797098627
3.98683960004344 10.32420672961162 -3.6912958698386555
-1.0140573592615294 6.130673485976205 0.6165763707225684
-3.347281562752161 12.189910075701615 -3.43005643955627
2.949397932650441 7.29795413901294 -3.7323990802619527
-0.1881430943913625 13.995572822015992 -1.3853876125420639
-3.4449392462119652 7.967171037714059 1.6656832737333662
3.508848460419075 11.920412060422109 -1.1892084476863864
0.25291676543975133 13.991996130980025 -1.4864454278820292
-3.6329894131383447 11.673734723313318 -0.20668038974066416
-2.5754970685452396 13.06052525719277 -3.600305216029981
2.8799146334449124 12.775984816973942 1.705728367755687
-1.629567690035705 13.65301370700846 -3.3169868607619284
-2.2295252265957384 13.32102653767976 -2.081680205849886
-0.9981095283556288 6.126529028196325 3.513939478696285
-3.6472702362480054 8.357617637765365 -0.08016414493347135
3.218785170445552 7.62525327107925 0.6709501165483243
-3.483022667449302 11.966863772108875 -2.1711861226151186
0.8263324051293448 6.086283766516388 2.6655667918560813
1.0894169275296626 6.1512117805714706 2.566664689019195
-3.979347876265369 10.405943936599993 2.191320378337405
-2.0944187343940186 6.592154615446974 1.1977844806967948
3.9118004800619968 10.835354418308022 -1.9656924721203337
2.765129682609148 7.109661293489319 2.7237243565864144
3.7082678852697235 11.499583039073599 1.8650876490385544
1.12706308957422 6.162067119904334 -0.8506514243143686
0.7521454980229955 6.071351740126925 2.0559601886349723
-0.2653430081046641 13.991189432744324 -0.6930817338980884
-3.042928307679278 7.403735892802096 1.0365036864641342
-0.32016580370964914 13.987166143783696 -2.741287337830858
-3.969691607274992 9.508524117447774 0.24834120887613054
1.3928471492044487 13.749663560768225 2.9544445085064748
3.379499487430192 12.139855886376246 2.6923515879466144
-0.17711084605856822 13.996077044828894 1.1495428024950334
2.077093025563858 6.5815669432978545 -2.236606605949757
-2.8889355939846624 7.233404414481855 -3.654379731997625
-1.9495400934419325 13.492748691798827 2.058675582978627
-3.732814436911076 11.437392214946305 -3.9004307939866187
3.3786610470711733 7.858820528539487 0.8249621873404918
1.0787411495729133 13.851794066693872 -3.3231302272887966
-3.9973502494825355 10.14557122985642 2.3236583335285985
3.5163114825616013 8.093287237781885 -2.133408134977497
1.1896027807029692 6.180988973026686 3.4766434183666997
-3.4478126464875865 7.972048335211053 2.5037499989411627
3.6894459289254646 8.454688142304178 3.9188173339337915
-1.4601229349516351 6.276018123724523 0.9453153827947745
1.603998402866795 13.664312912893871 0.09847085127305721
0.9588064054276918 13.8833864444465 0.0836169903135735
3.662323320355956 8.39146405163673 2.3546837078885288
-3.3241679017657204 7.77516118317068 -2.468055423257187
-1.6720518018279231 6.366235729714433 -3.1633825807503726
-3.9346272843074424 9.279786050132712 -0.3518347597188729
2.838747355902183 12.818069099464804 -0.049146636605477134
1.5605941793166758 13.683007712112875 2.4502181227350217
-1.6830517338903537 13.62868252414684 -0.24314676181821504
2.463523609366555 13.151357076894584 2.1540133662102425
-0.624098929427497 6.048987404944468 0.5537505408841641
1.8098041441566366 13.567156985582981 3.2285769896956396
-2.4391836943577916 6.829766111912392 0.06804961559740885
-2.0141814278244654 6.544124832143528 -3.035197708370804
1.3119797378726257 13.778717926415212 0.9253545926549771
3.6827147744042787 8.438714667210236 -3.4310336654414115
-0.07473939531483086 6.00069830810578 3.502631463004196
-0.5738366982180441 6.041375056439646 2.395084161762952
3.5317330509339655 11.877994051359233 3.9707908291255336
3.7043180201346386 11.509313753235487 1.188255934795949
3.9573767320983295 9.417617479446072 -0.9929986658643468
-3.97490997205087 9.552684994561378 -0.36575072833328726
-3.9579571554624113 9.421575281022761 0.48544145288157914
-3.8792102066917122 10.975565565351117 -1.696416895759869
-3.292207837942716 12.271864333931177 1.2341556151588309
3.985794952677001 10.336806465517725 -1.723560607783555
3.9317350794266637 9.26416084284281 -2.5523052338929118
1.0896436967098022 6.1512759758303535 -1.8407466336537022
-3.9186639209423637 10.802541634249975 1.6330187738058335
-1.9595500652831719 13.487142604145795 1.5146513652613
-1.911915117323566 13.513485532082012 1.6400020992237199
3.757707322808946 11.370998058389588 0.9199657994132844
3.990026950078282 9.71771479378295 2.6939333448781015
3.7904411189347096 11.277715196704252 1.5656428305876426
-0.7787182077817315 13.923467592942398 -2.543491678091222
3.071103565725418 7.437126049024529 0.7173506214323728
-0.6893736578715938 6.05985229213006 -0.15371031106901611
-2.4627719021773804 13.151944567698742 2.6065065551518103
3.0789367963079353 7.446541912554462 -3.024452353926665
3.954767426241417 10.599845483720463 0.3676081124231265
3.8224909901571325 11.178372873995132 -2.630817020537175
-2.5133951736896334 13.11172696438387 -3.7049841596184585
-3.9999932534637757 9.992653419552079 1.5725042340861535
-1.1349254477400226 13.835615234623008 2.0128675024401836
2.6917089038364517 7.041165233236644 2.454806836991903
1.9137313280196455 6.487503394427809 -0.47984165213387175
2.3017799722914787 13.27136194254898 -1.7102648037677195
-2.2744526156178555 13.2904202314156 -1.2863776839476309
-3.982552426678173 10.373197225016206 2.3586775908040423
-2.693779466344144 7.043050188673697 -0.09734274901967943
3.767240118150568 8.655417577016234 -2.0388030054790267
-3.0461361706617853 12.59249964894616 3.250448676310387
-1.8597348747717044 6.458618038737155 2.3497238952538746
-2.376561079071552 13.217445794017712 -1.8235140891166548
3.959321165774444 10.569013098487634 -1.1362799339891092
3.8148625484728726 11.2028398630986 -0.17178426873219355
3.8755839920909625 9.010126917100845 0.7046363304031562
2.219501487702182 6.672266064408424 -3.683134366088641
2.653194799554558 12.993419007692816 -3.2884579677925645
-3.0689169832957663 7.434508127154013 1.8024587513245311
3.887343338515952 9.057364456167894 -3.9267135997751916
3.821259788472282 8.817640651491786 -1.1070058524994453
3.99513804760424 10.197159784400826 -2.308137171807112
0.6817168486747066 13.941479688928135 -1.6987022734779114
-0.652034039278534 6.053501347824616 0.21526437685767608
-2.99269202933429 12.65401477342516 2.3574791042636525
3.1015617752814735 7.474071546121539 -1.1510524012324659
0.6141516013226287 13.95257103801979 1.4890570753021795
-1.2790490835364297 13.789991219238459 -1.5462690353293755
-2.491362361601068 13.129395082631394 -0.15910179842976646
1.941198198021414 6.502608178084929 -0.3450081302825918
3.3592214937079703 12.171550357742227 -1.88277405837749
-2.678385645428532 7.0290994068528 -3.3638268185961193
3.9890115151549477 9.703711066758764 -0.9534781502862444
0.680594425232498 13.941673658275434 -0.5227457969969729
-3.967163160710281 10.511484561158216 -1.5276286825357586
3.973657498622634 10.458307848110975 -3.5174648491582836
-0.8554953289164338 6.092554831836772 0.7313691543306762
-2.5430137607399494 13.087568786713465 2.7587452379362505
-2.383406976676792 6.787622191657962 -0.7207399184616108
-3.238909665458071 12.347224782376475 1.4833601570968025
1.184602735207668 13.820564926779614 2.205238563825014
2.183645399009472 6.648628225429956 -2.993349741849336
0.995845624924054 13.874053625250898 -3.725855635430678
1.6234118637767765 13.655753536625358 3.7049909554094036
-2.963196452445495 7.313093454506756 -2.733375244983031
3.585602806625806 11.772978429963867 -1.534270897567974
1.1359869556778588 13.835300983825096 1.7455074143090084
-3.3180948294691635 7.766113990676784 0.09354769962631515
-3.765674280400293 8.651038468327679 1.1607385159858499
-3.964973752312459 9.471811450830996 3.851784498384708
-0.7250512856094136 13.933738760166483 2.1913905167855328
3.377849315990754 7.857540199102724 0.5324543637339092
3.2277725145835694 7.637483419296521 -3.7278930435517426
1.5891485221157753 6.329222565360677 -1.5218719199057098
3.9996582872405604 9.947716299787535 1.682845659126233
3.6135762456670055 8.284754619084737 -0.6843198163811834
-3.8045519750509973 11.235064479748145 -0.1178660448597384
-2.844394456487331 12.8123691393386 1.650300702928278
2.484244085142937 13.135048855350156 3.2665966065777976
1.2883311696728468 6.213153977615489 -2.2175846755606488
-3.35122913620413 12.183864299048025 2.1898878244718354
-3.726311270282497 8.54583208776784 3.9222128898971302
-3.8420189920981285 8.886945614825008 1.4957481235483936
1.4769510334306435 13.717339861358948 1.6783052820657378
3.982295364394382 9.62406964644629 0.7879102758072731
3.893662519305695 9.083816510870212 2.253826347855024
-3.795890006083562 8.738564681913918 3.718890159292614
0.8437335884793841 13.910001743180135 3.6204843952348256
3.7203417225825612 8.5306268454843 -3.680935309994277
-1.752919662648253 13.5954516623508 -3.915211673453432
-3.3091956388242796 7.752952109102619 1.44022068451559
-3.255883392503485 7.676377110110163 2.1914830593082755
2.3144221163018286 13.262430116887252 2.2096677732540657
-1.8485560809468373 13.547229963731485 0.5623756697973761
2.2266296675409247 6.677031398940612 -3.4997493180515136
-2.7104852666977117 12.941644033362063 2.8040602217823496
-2.5415808333961296 6.911251569435699 -1.1363443957325199
-0.6479304169085217 6.052825545425595 -0.8660347824894723
3.533102147492174 11.875417077715298 -2.502641374226016
0.01486994422083863 13.999972360499367 -1.8226328471714774
3.6385692123197173 11.661569765962017 -0.462609511957524
3.5184620034592253 8.097258522496109 1.1093667161640788
1.9401806603284868 13.497956404143327 2.1089562514891664
-3.9884975362569994 10.30312935072646 -3.01919875207133
-3.86992445155292 11.011773067082155 -1.0093224978316595
1.0327576417247573 13.86437726593291 3.5916992410547532
3.253195657410776 12.327384371908446 2.6002398001773273
3.6196898878211954 11.702305823289395 2.5093888699330735
3.9851476992836057 10.344380334651362 0.04666531024857079
-1.3930656881236756 6.250417624778393 0.5821764505064984
3.951216301394739 9.377192052401 1.4386612140194233
-2.372374840730052 6.779466253076819 -2.4405511145919103
-0.9510741700168406 6.114712633134227 -3.2087816978213493
3.9867168806405537 9.674287682738814 0.014089519212843626
3.731963456734291 11.439600207557584 3.8341172732700235
-0.2725386172442612 6.009295462940086 2.8634354197241914
1.378461460542948 13.754975898963641 1.4940338797439248
1.5267222390291644 13.697177194137952 -0.5816316204384773
3.2561697370393334 12.323221608798695 -2.2959849082751855
3.239135484054414 12.346913146228378 -1.8432015680363962
-2.6065790521196797 6.965902828673598 -1.071799415771217
3.9782650251297715 10.416422129370206 -2.7199027023749434
-2.000852407901171 6.536390662647404 2.9585948044049983
2.8212761222883307 7.164439906860425 -3.239988484049624
-2.7221572477337768 12.930846280276478 2.1496066382640793
-3.2046802836260193 12.39374691221496 -2.0010013054648432
-3.4981685950385892 8.060201948478722 -1.6727976556112196
-0.7072741088613098 6.063026119602209 1.9190460044188624
2.330702779058783 6.7491809407954335 3.272839059369689
0.5541306821373095 6.038568543176085 -0.532741506359633
-3.160609873497586 7.548358666617489 3.255694045313537
1.5076621109426431 6.295009452208012 2.0337686191137596
1.7784700436298846 13.58288212252526 1.0347355257296007
2.676884131228776 12.972253580698585 -0.8969893192068445
3.4389305357022097 7.957022572171951 -0.4443907222126562
1.4009755483605864 6.253365842133001 -2.036648695328023
-3.2038723465349657 12.394828174861097 3.5504655711768986
3.3155859056644945 12.237608120775162 1.717878762976814
3.8841040053454905 9.044104568658728 1.1982059923142403
2.0617040247215064 13.427736354279183 0.3235669675167454
-1.143559946368086 13.833049784318307 -2.7872018321123324
-3.632979114120739 8.326242921938045 -0.17967506085985807
-3.808949138801768 11.221436227570344 1.5855352736054744
-3.891490110813095 10.925367341893956 -2.3434438694229573
-1.1139688598784379 13.841753945689538 2.856959063568305
0.7089589024096352 13.93667083646755 -2.9427486214690823
3.7143525634567998 11.484447720312811 0.11421813579368578
-2.2710402560832335 13.292776359737996 2.8424659662451486
-3.399994323587518 12.107139909823896 2.843460265468015
3.6365036389872567 11.6660856171375 1.865719844123527
-3.839088946175601 11.123118899917687 3.5147809759275574
-3.9993410624229795 10.072602110282237 1.4806181973737464
3.9291591390212655 9.25052787894034 2.0691249165914503
-2.227886608383839 6.677873984903048 -3.336868579448158
3.734568349069046 8.567170894303267 -1.0104494763916811
1.9649781321021829 6.51591318415281 -0.7803576260871301
3.874310073921257 10.994847451176444 3.9420521101543304
-3.7562305216191056 8.624960993841606 -1.0303843160810198
2.8534657008595636 12.803164906675674 3.599260305038224
3.8339667883564874 11.140481769156983 -1.9073307827843191
-2.6481261835087384 7.002096112912316 2.3164766605452076
-2.698616081455253 12.952536408735902 3.660010130300562
-3.642990305566591 8.348146001140586 -0.5639680725068743
-2.735606018885908 7.081702600927179 -1.4181462601841943
-0.5692032131178624 6.040706161172639 3.9399261109179067
0.43821550957169425 6.024076564221738 2.855658518373577
-1.3265944059340316 6.2263880323826974 1.8471834012295307
-1.623473113322502 13.655726336902003 3.6293182261622663
-1.4099794270478416 6.25674499729155 -2.1213692737475807
3.405605181146843 7.901940575163377 -1.2356045701479257
-1.6989880411337892 13.62124835327327 2.5483335226675443
2.3403650705171137 13.243869808839964 -1.2609284697823249
-0.3366764546337668 6.014194063317277 0.9901479802439344
-0.7371909497153266 6.068518154225075 1.5465711594776526
-1.706106713184708 13.617899927198938 -1.7742723360239605
-2.489034050612728 6.8687527253679885 3.827709627315114
-3.8209043751233955 11.183507395905448 -2.2750886455798476
-3.18493563490632 7.580044421584587 -2.90826828613901
-1.2139361411206715 13.811346093610636 2.488185519281867
3.1085771631085426 7.482710183351935 1.375441347451419
-2.304661937205077 13.269332249129498 0.11351883347846581
3.99285272213798 10.239012843410814 -3.666575246758022
2.4865605801705306 6.866788152527507 -3.3052332875497976
3.842890059957213 11.110043236582273 -1.4993408062850682
-1.4619592583063161 6.276738643735516 -1.0330121487407755
0.24325706631574445 13.992596398296158 2.3092675013896544
-2.1321714316532083 6.615647035836553 0.20234718923903916
-2.481937483781509 13.13687524881056 -2.3100445799332308
3.7230020370158616 11.462619510459144 3.545546007517479
0.7119828486543252 13.93612505177644 0.5101081050492366
3.9033866676350946 10.873826368867748 -2.7174097656811513
-3.6733454197727986 8.416796466958779 0.6895285079434279
3.954147323799417 10.603919648372123 0.392048710932948
-1.0355127424229156 13.863639910793935 2.834047715495469
-3.647564782848753 8.358271899819727 3.452917566683581
3.3670600622291214 7.840623576737575 -2.222730717426778
3.6681188587797826 11.595275536659452 -3.9182175195652738
3.9888440619969714 9.701465162717145 2.5677643709224665
1.507642312270408 13.704998604352225 1.8223840405571634
-3.5696697948204545 8.195157193563247 1.1293070640504022
-3.3945723096015743 12.115863614434124 -3.970186050962507
-2.7062563832510134 7.054465008166913 -1.8098700225562672
3.999999814416431 9.998781530256458 0.4722235782456181
3.8734848874996097 9.001944477339995 3.722797222501037
-1.7504701532168587 6.4033551408712945 2.700156579790031
0.2562795629304075 6.008218344445153 -2.279564319002877
-3.410293225524035 7.909569394611513 2.7211868547407327
2.809541431206166 12.847187550256569 0.5579401675884386
3.975283540429089 10.443982852364329 0.812471999490187
-3.6320799831921815 8.324292687939005 -3.087458835947415
3.6371211191454877 11.664737205887425 -0.0030793667525905732
-1.565837223413387 13.680781681894901 0.9044815839042499
3.999483519535947 9.935722655932627 -1.2769579705497867
2.1410076390245014 6.621230062635408 -2.6030775739908405
-3.3983202017575236 7.8901611894917885 2.962600615186009
-0.47375963611295446 6.02815511289903 -1.7226485373744191
3.8994423252204986 9.108737102601623 -0.8341401878395454
3.9522264304420975 9.383634651756836 3.8834678449815465
-2.024227191888593 6.549999380345154 -1.6071215256480196
-0.5469520562744269 13.962428983355686 -1.2835741781046126
0.48291553659036296 6.029257930245325 2.0378718910299316
-3.4326394420231834 12.053530243523763 -0.7739046157789975
-3.3640008067275877 7.835860777968261 -1.2266631010139486
-2.3835181087815163 13.212295351475419 2.8060089202350884
3.903568340658067 10.873014438490008 0.7152339201856384
-2.8265386264554757 12.83031436295603 -2.5704710677572384
3.7004852542276274 11.51868656517528 1.0807451243366035
-3.0706322292652573 7.436561349944673 -3.513491926445016
-0.38153300926811373 13.981762494529127 3.5936703132724315
3.5531190649019755 8.16278882252744 3.319960041683583
-2.547655602970228 13.083739763445418 1.8786971018793368
1.7600000106750104 6.408008913927547 3.315372388541877
-1.4031141366995303 13.745833781602427 -1.0694958320338612
3.6883812016040327 8.452148549875025 -2.0443254547891847
-0.7992921397918817 13.91932801322713 3.8549495446931052
3.1779183301305167 12.42916345415875 2.1233363335017517
3.489060065760104 8.04386609417502 2.684811151223931
1.3157707245454566 6.222600444693581 -0.9551453397657355
3.993054639844691 10.23561545623067 -0.8391699090031697
-3.1567877001621616 7.543439107999785 -3.182693768077068
-1.142186080191559 6.16654060172582 -2.080257605226744
-3.992545639129535 10.24408875325941 -2.207226087016277
-3.5838375613054865 11.776543929706198 1.3786342920209806
3.924078752634722 10.775632608340267 0.12168905292836563
3.912576173664046 10.83171370391284 -2.813394767240501
3.5663688952254446 11.81135664714833 3.1270699970896354
-2.9847545250407177 12.662938306692244 1.029543380330928
-2.227810897174761 6.677823212646656 -0.03247338630272001
2.648440726877203 7.002373986599037 1.6742967245350595
-3.9015216910550805 10.882115918814929 0.3979288746926368
-2.1696625895240707 6.639558920674295 -3.3809677759311807
-2.6917684991798545 7.041219449363803 2.2832831179194395
-3.1386274469604087 12.479721304741076 -3.824634643907582
-2.0151080292043053 13.455334952017871 3.6759881270599637
1.4870672420111826 6.286695404664835 -1.2670296405855144
3.6579602661302144 8.38156659345756 3.642896535624419
-1.6889662976895685 6.37406662426503 -0.5802142169801154
2.701389885801519 7.050001239849539 3.3986368092427384
3.736971771806556 11.426548974525925 0.8593301668129367
-2.784946739876838 12.871249145589664 -3.627460844647266
0.629857430324516 6.049901315477676 -3.909296292794304
-3.5783119326312196 8.212352464049744 -0.8042858419260206
1.7176224392095674 13.612446976264673 1.9027613478734482
-3.6408351072131153 8.343401158371629 1.945801153709266
-1.3173646503563199 13.776843970564785 3.3801530092964045
1.9528954514918182 13.490873723803622 1.1601227470994173
-1.2223606462594556 6.191347423237955 -1.0383625790284086
2.620854096270361 6.978225057013201 3.937326801767167
1.0926274938307674 13.847878007386031 -2.6235525880947677
0.7260228170697671 13.933559567248738 1.5855118658468719
0.2043076438604285 6.005221109165089 -2.6824449099400187
3.995679079423199 10.185872790530986 1.1968804309382097
3.573908033911981 11.796435739217909 2.6790506943397636
0.5895590091360112 6.043686036884008 -0.6719851134933732
-3.6269905673727223 11.686694822482508 -1.1672582248411905
2.1925745285104186 13.345536868266036 -1.8146510833270915
2.5868960511987247 13.050896396191199 -1.3062123872942673
-2.730212099021237 12.923344299660588 0.6767466771555384
2.76884218077987 12.886782461138036 3.5893409921798627
-2.233356179507549 6.681548527482216 1.956063714619316
3.578827692275697 8.213385226468613 -1.8331547810025093
2.879051078319578 7.2231195761382025 3.911404092843518
-3.306618924250946 12.250837908376683 1.9973513789567034
-0.3770424823378714 13.982190222291308 1.4595290101913339
-1.336457022537375 13.77013031961901 0.0489378385981496
-2.166470736703196 6.637500253232915 -1.2189287976471048
0.6207697111251519 6.04846296161233 1.4930434754115476
-1.141135749793871 6.166227810557547 2.20205911069084
2.06106270101191 13.428122013945462 2.3850776613842983
3.442791571298982 12.036464140757868 1.7617539808698162
1.023518390060404 13.866834636392944 -1.8849265010374925
-2.7506018165717245 12.904167634051507 3.3237721038547763
3.953091919283203 9.389210119846569 -2.38566821688625
3.447706097974831 7.971867198138355 -0.6061014059377792
-3.9995444213006177 10.060369048717922 2.1939567772178403
3.2279900732461533 12.362219313913146 -3.5490687334553055
-0.6944298035712907 6.06074026650794 0.9524971447031989
2.9838926330784785 12.663904043741063 0.7303029540448902
3.853922360180735 8.928887288050902 -3.273141605691788
-1.6516047389721853 13.643103318079879 -2.5907540032228544
-3.5645550054014863 8.185076416631485 -3.4925427853946713
3.950286626159597 10.628677636936951 -3.0443030874730983
-1.6019954715188665 13.665189014120969 -3.553418388823383
2.473629866100629 6.856569503625858 0.31338731401320263
-1.6185894613722283 13.657891217017635 -3.3309766575184625
-0.6092577403041036 6.046671654683925 0.12609684996168458
-3.0601012087349324 12.57600089136223 -3.26633226994607
-1.9111872412972415 6.486118481123383 -1.7915966456347263
-3.9721892277945603 10.470863821707352 1.2951598459976
-0.7230869545042106 6.065899689099702 3.1148590118738406
3.850483533369682 8.916590308678693 0.12310417497452075
0.6025292688863026 6.045640572717835 3.9459536359698744
2.8349859265882986 7.178146921605187 -1.4211074985528693
0.6189663666661048 13.951819914537625 -3.844821857469512
-0.5471080405026271 13.962407449015986 -3.6472463759316662
-0.41049022250130274 6.021118526868282 -0.1174323447570691
-3.4063868050863504 7.903209849762355 1.3489334719813888
0.11323665164900582 6.001603138666283 1.7479205168134966
-0.897866494817089 6.10207288966496 2.2876586592471018
3.550376471109027 8.157494392574229 -2.2726742871618804
-1.651756742840905 13.643034403142469 3.089771204091565
2.655470072990782 7.008599209157969 1.3436036526851707
3.2274429487743745 7.637033218090748 -2.132548165323871
-1.3025686981029414 6.218027659180675 -1.9259410448594556
3.96961809209127 9.507930692948985 0.5835138327451137
-3.0558084262992797 12.58109179646101 -0.5224168527981154
3.7101341785125705 8.505040342540022 3.335736924763455
2.793481377495736 12.862946348359419 -2.389160274322272
3.8634732372712834 8.9638655758597 -0.13802093376748736
3.7779199747765637 11.314275718479287 -2.848671166516496
3.3207671981130304 12.229911481637004 3.478029709054958
-2.3064898084867833 6.7319570438339404 3.2234540819257855
-0.6892868364390634 6.059837102718744 3.5074032946293245
3.7876310356802905 8.713978562561474 -3.903121963472386
-3.973833042235602 9.543216733629023 2.4794628344096763
-1.1906231859155896 6.1813069736937205 0.4683532299740065
-1.404358295241715 13.745367509148572 -3.6763267844825824
-1.6857550983458343 13.627427428412735 0.788918303935608
0.5224052496672497 6.034260125131743 2.7555230444879113
3.923948668964214 9.223709562512862 -0.6368327736135759
-1.3539903765842136 13.76386902802387 2.5723361212567655
3.9959637189292843 10.179649539383886 -0.9486805270567125
0.12983917314065196 6.002107831729556 -2.2952016756184985
3.635141145529717 11.669056275886735 3.340561799722571
-2.1177289861957145 6.606591103178624 -1.3318325080106082
0.4350547880719661 13.976270530456354 -2.333219943559837
2.8426500676745112 12.81413229837371 3.1460780203679333
-2.4897427554106697 13.130683793020317 -0.4079440573424655
-3.9266379976578603 9.237429324357755 -1.5313510917559192
-3.9879678441471196 9.68997988121966 -0.6376399391586451
3.9874654272235746 9.683583396932596 -2.224974310184434
-1.6783978290689314 13.630837469149053 1.1158689422051777
-3.6950472546714224 11.53187002899893 1.3336473144213503
-0.3739377654962441 13.982482962617125 -2.4403994242568112
0.6799808089417356 6.058220440020657 -3.227968845216992
3.8093018071418157 8.779664086365521 -1.1802411773542785
3.839868754886303 11.120449885201438 -2.4318515629943853
-2.3863148507922274 6.789781715694637 -0.06033648268542624
3.103940930292448 12.523004300681086 -3.8182714111388636
-0.6929184622380768 13.939525860391022 -0.040996850118911965
1.6207831221841829 6.343080248235834 0.13837535452947147
0.7589591779657295 6.072662356483519 -3.9841802955572794
-1.4191062156888312 6.260195520004645 -3.6751601424067157
-2.1532164610392326 6.628997349168992 -2.7261393564085266
3.3526201063000114 7.818271689042629 -1.7647967815166616
-1.6239931438571276 13.655495352028922 1.1962821410951774
3.5865431643298407 11.771075416349879 1.3577658057064577
2.3485313828895156 13.23796237525748 0.5545156095601085
-3.9902541676332355 9.720945027484555 -1.399514315412227
-1.5835870430890306 6.326819895926619 3.4063053046984617
-1.481666226250101 6.284537014854033 1.2049108968953721
0.3467759165748675 13.98493995734988 -0.07231966224795361
3.658764153489642 11.616615250806209 0.09189214925482503
-1.100634498214079 6.154404636296086 -1.5311080386198785
-3.109839106804898 12.515730655254437 0.5054750498328868
3.999956223009468 9.98128599434026 -2.208869990806722
-2.956322888075478 7.305532523588184 2.2560908800188297
3.6521943492268334 11.631403210575359 -1.5086304447766556
-3.939273703768864 10.69435055036713 0.03822515606504684
-3.999500160783908 10.063233408017394 -1.366214402895034
-3.8434272054309075 11.10818198710932 -0.9984880917119359
-2.684760024819486 7.034858585306381 3.442393571260393
0.9022571717630491 6.103086863169498 2.5754696501444725
3.702664202829774 8.486633619679967 -2.8965318858261
2.003097202388135 13.462311597442499 -1.7825718781245419
-1.7155086566518996 6.386548734388079 -3.8599496660782213
-3.727773942572792 8.549585771899867 1.8369411144673178
-0.8271024016021292 6.086446420800657 3.4814396344166516
-2.7301077623547454 7.07655826021274 3.5843819169895648
0.579495384604873 6.0421994619205925 0.48266819142302086
1.6117586618068112 13.660906174172005 2.732988866017532
-3.9795471569343865 10.40398567516119 3.0602621045838854
-3.7942607592388913 11.266327481696544 1.5228049538255455
0.005678010370225405 13.999995970022749 -1.1233799515042353
-0.04524154257996664 6.000255857829781 0.5477597925634425
